-5854.67 -5854.60 -5857.91 -5860.37 -5862.96 -5863.12 -5866.81 -5866.85 -5870.03 -5867.62 -5873.24 -5876.67 -5877.76 -5881.79 -5883.24 -5884.60 -5885.42 -5884.85 -5881.01 -5865.89 -5824.25 -5786.25 -5889.74 -6346.78 -7142.56 -6175.71 -1883.69 -487.27 -273.53 -70.87 -30.29 43.09 82.85 114.14 143.77 163.05 255.93 418.59 474.01 440.06 419.88 494.79 781.03 897.57 1153.45 1312.58 1077.08 621.37 513.50 624.25 431.62 314.03 225.26 200.72 193.88 180.71 163.16 160.39 135.85 118.51 117.21 112.36 114.26 111.45 100.42 67.73 74.34 68.98 78.30 81.85 87.26 97.22 106.26 117.95 197.51 259.82 434.77 452.47 367.83 287.37 276.80 266.86 265.52 265.65 273.60 279.25 295.26 310.99 322.11 340.17 361.45 381.25 393.02 407.07 408.72 417.37 467.71 506.76 627.24 712.77 865.83 799.14 510.66 323.14 130.67 121.12 70.29 12.62 -73.18 -307.72 -825.22 -1427.78 -1300.45 -1574.04 -2967.99 -3724.69 -4703.13 -4864.80 -4451.55 -3442.59 -2425.55 -1360.49 -1365.42 -2161.25 -3621.34 -4142.05 -4153.39 -4149.70 -4132.79 -4133.49 -4132.94 -4123.40 -4105.41 -4101.56 -4100.30 -4094.82 -4096.13 -4080.01 -4073.62 -4069.41 -4069.46
-5865.96 -5865.89 -5870.84 -5872.33 -5871.64 -5871.97 -5876.51 -5875.41 -5879.18 -5883.58 -5886.05 -5887.76 -5893.12 -5896.59 -5899.24 -5901.08 -5903.25 -5903.89 -5886.36 -5848.05 -5819.91 -5816.67 -5971.83 -6904.05 -7809.72 -3088.81 -705.30 -375.21 -201.91 -30.70 9.25 66.61 90.31 136.21 144.74 207.42 295.88 434.50 529.08 549.14 587.94 574.48 584.17 776.94 1003.27 1406.84 1401.98 832.89 793.12 703.24 392.69 327.96 288.86 248.36 203.03 205.82 196.02 188.00 162.61 136.78 118.22 115.49 126.44 122.35 116.20 89.71 105.93 108.93 96.11 99.63 103.31 118.74 122.70 131.66 175.08 223.88 331.25 378.69 335.36 288.30 282.81 271.46 268.86 272.26 276.23 283.82 293.62 303.60 318.34 322.84 352.44 381.59 392.88 401.26 403.08 418.28 446.88 476.19 570.13 764.54 936.35 821.27 670.53 439.76 219.88 143.34 99.73 86.65 63.77 -109.88 -741.95 -1442.60 -1306.50 -1181.20 -1649.58 -3125.02 -4382.95 -4847.96 -4446.61 -3787.90 -2584.91 -1190.45 -1208.69 -1585.75 -3235.69 -3813.15 -4093.79 -4102.93 -4102.54 -4112.82 -4111.88 -4093.32 -4084.49 -4081.07 -4076.26 -4067.32 -4063.91 -4057.23 -4046.70 -4044.99 -4045.04
-5874.63 -5874.58 -5878.54 -5881.43 -5884.60 -5885.60 -5886.38 -5892.08 -5893.12 -5893.11 -5897.49 -5902.56 -5905.62 -5905.98 -5909.96 -5912.20 -5909.61 -5909.48 -5890.52 -5863.10 -5829.13 -5893.64 -6154.67 -7752.60 -2911.44 -985.38 -479.08 -163.64 -70.69 -20.07 42.58 68.93 103.90 132.53 150.72 195.34 262.83 329.27 415.45 381.03 602.66 764.30 554.79 624.05 931.97 1388.95 1630.67 1366.81 851.17 497.52 430.82 471.78 415.50 299.15 257.99 240.64 219.17 205.13 179.63 149.10 121.22 135.18 155.57 149.63 149.47 147.89 128.92 124.76 125.29 123.34 129.67 133.83 135.73 141.74 154.25 201.78 261.25 304.81 284.74 282.23 277.93 270.14 269.51 272.06 277.82 286.14 294.39 300.12 308.40 316.66 347.38 363.35 379.04 389.87 396.81 406.49 437.30 452.52 482.25 662.92 921.37 943.01 816.11 523.21 409.52 270.69 147.95 124.58 100.45 -18.33 -607.42 -1420.10 -1306.87 -1207.38 -1536.46 -2779.38 -4075.88 -4546.85 -4438.51 -3673.94 -2226.01 -1094.43 -896.04 -1310.87 -2064.08 -3763.68 -4014.02 -4065.80 -4063.06 -4068.22 -4070.03 -4077.51 -4067.70 -4049.18 -4048.62 -4045.51 -4040.16 -4034.24 -4032.04 -4025.68 -4022.91
-5880.59 -5880.52 -5886.53 -5887.09 -5892.79 -5894.91 -5901.68 -5901.70 -5904.89 -5907.80 -5912.04 -5913.74 -5920.66 -5925.18 -5925.79 -5927.39 -5926.55 -5918.73 -5899.41 -5863.19 -5860.00 -5941.25 -6384.48 -7563.95 -4032.92 -890.50 -366.02 -183.74 -100.63 -17.44 37.07 80.51 121.09 159.05 166.50 225.66 284.39 418.69 379.83 447.24 676.75 864.02 721.99 844.73 860.26 1605.87 1809.68 1379.16 1018.23 721.97 644.24 566.02 449.41 324.94 310.80 265.80 250.95 228.30 204.96 169.71 133.69 142.58 183.44 192.01 181.88 186.54 171.82 172.06 156.43 153.90 151.23 155.35 157.34 151.65 170.64 193.61 236.29 264.07 270.85 274.43 269.13 268.53 268.69 271.66 279.53 286.24 292.64 298.52 308.63 317.68 341.13 351.05 368.65 387.07 396.97 403.91 420.21 446.04 483.39 547.52 837.80 1004.28 958.94 682.54 548.81 304.13 191.21 172.41 114.47 -0.86 -64.97 -1052.46 -1266.65 -1170.66 -1444.82 -2199.02 -3432.08 -4261.96 -4217.67 -3948.32 -2286.54 -1208.29 -869.83 -1074.06 -1302.16 -3510.22 -3875.93 -3799.79 -3961.18 -3930.40 -4028.94 -4037.73 -4036.64 -4037.17 -4033.34 -4028.35 -4024.13 -4016.56 -4005.45 -4002.17 -4002.22
-5884.40 -5884.33 -5890.71 -5894.67 -5899.48 -5903.11 -5907.85 -5908.78 -5911.97 -5920.88 -5923.82 -5926.67 -5930.18 -5933.67 -5938.90 -5940.94 -5936.88 -5930.34 -5921.16 -5906.67 -5978.09 -6186.93 -6306.76 -7453.85 -2690.61 -1042.39 -252.97 -177.27 -78.11 14.00 54.79 93.91 122.63 169.67 190.42 224.12 390.02 499.56 390.50 484.02 625.56 875.06 1110.67 1178.79 1049.80 1495.47 1623.92 1566.42 1034.95 882.11 766.19 481.65 411.86 335.56 333.42 297.37 280.70 236.80 255.65 256.00 172.50 167.46 225.28 212.63 201.79 202.10 198.73 197.59 188.42 188.97 181.10 182.57 178.34 168.37 175.77 193.82 223.32 251.51 261.40 265.08 266.45 265.91 268.13 269.66 278.63 286.25 291.16 300.29 305.85 320.07 333.69 343.32 347.38 372.32 389.17 395.75 424.27 461.11 492.72 525.01 715.84 1051.70 993.16 628.80 476.68 401.26 216.32 189.87 150.89 92.63 -34.53 -489.97 -1112.41 -1109.58 -1393.85 -1873.14 -3480.03 -4189.36 -4142.39 -3381.12 -2410.62 -1154.58 -851.33 -1031.40 -1549.89 -2548.59 -3252.51 -3426.34 -3551.96 -3797.12 -3997.12 -3992.35 -4015.51 -4013.63 -4010.52 -4010.34 -4003.42 -3994.15 -3989.25 -3982.69 -3982.74
-5886.53 -5886.46 -5894.14 -5898.56 -5905.90 -5908.93 -5912.73 -5917.54 -5922.70 -5926.28 -5930.21 -5935.88 -5942.20 -5943.86 -5949.95 -5951.32 -5953.22 -5950.22 -5943.44 -5982.48 -6126.81 -5992.37 -5072.29 -4361.24 -1385.16 -778.34 -144.09 -91.00 -13.18 60.82 88.28 101.05 134.82 185.94 197.24 235.58 344.89 493.52 516.89 733.18 1017.24 1079.75 1246.46 1445.67 1342.92 1593.74 1734.32 1552.17 1358.48 1056.76 876.15 639.57 554.82 399.92 374.68 348.36 348.15 386.79 341.25 397.50 303.64 331.50 272.48 247.94 250.00 246.04 237.49 220.77 211.56 213.80 195.76 193.03 183.57 181.82 182.02 206.65 233.96 243.88 250.83 256.38 257.15 260.69 266.48 270.89 276.48 283.48 294.13 297.75 306.12 317.47 323.47 332.93 342.63 353.80 366.75 383.81 400.22 444.26 471.82 486.61 637.01 930.66 981.93 790.64 589.23 426.11 194.19 172.50 129.41 89.91 19.29 -383.68 -915.71 -909.66 -1298.85 -2121.06 -3753.14 -4235.02 -4141.22 -3421.30 -2378.71 -1122.34 -848.58 -1064.66 -1430.79 -2083.96 -2621.42 -3102.38 -3339.65 -3615.06 -3897.03 -3932.34 -3974.78 -3980.66 -3989.34 -3992.14 -3987.31 -3979.79 -3972.55 -3967.27 -3967.33
-5887.70 -5888.49 -5893.49 -5904.26 -5908.05 -5912.11 -5918.93 -5923.38 -5927.16 -5934.80 -5941.62 -5948.74 -5952.83 -5958.51 -5962.91 -5960.79 -5960.52 -5959.78 -5960.56 -5928.19 -6078.06 -5498.45 -2979.56 -1248.15 -791.38 -290.04 -170.20 -41.14 -20.02 35.20 94.57 121.60 167.49 205.87 214.25 301.54 383.41 551.29 787.13 740.80 1011.71 1308.45 1516.10 1451.75 1405.05 1534.68 1614.91 1664.87 1461.96 1009.09 756.64 820.65 618.72 462.85 382.23 365.78 361.37 423.24 522.06 601.61 463.66 461.70 363.83 311.64 295.66 272.91 268.05 261.49 239.99 239.97 211.11 200.67 199.73 193.24 192.31 207.94 223.84 235.67 243.12 249.02 255.93 259.71 262.32 272.01 278.11 282.67 293.84 299.20 307.83 314.18 321.77 324.85 333.57 338.89 353.52 376.78 394.30 416.66 444.27 475.44 538.68 846.67 973.55 914.57 734.69 436.79 236.94 167.84 126.26 85.46 43.77 -89.87 -687.79 -592.60 -831.29 -2410.57 -3336.27 -4279.91 -4131.07 -3415.15 -2364.49 -969.11 -885.73 -938.33 -1459.70 -1983.21 -2468.70 -2790.38 -3414.22 -3590.33 -3616.98 -3742.98 -3896.98 -3951.96 -3974.75 -3979.63 -3974.54 -3970.32 -3964.24 -3957.18 -3957.25
-5888.91 -5888.84 -5896.52 -5904.27 -5908.90 -5918.98 -5921.46 -5928.93 -5936.50 -5944.41 -5948.13 -5954.84 -5962.24 -5966.93 -5969.22 -5959.10 -5960.04 -5957.49 -5797.62 -5613.94 -5317.67 -4249.09 -1984.83 -495.91 -376.77 -250.33 -141.76 -51.10 -11.70 42.78 84.09 118.67 166.64 221.07 272.79 298.09 413.41 529.68 692.19 880.30 1120.55 1285.52 1464.53 1337.83 1251.69 1346.88 1498.70 1540.90 1006.63 896.70 654.31 579.13 462.93 467.37 402.44 387.56 400.87 506.51 661.13 743.46 594.03 500.53 399.63 328.59 318.16 300.41 293.00 289.61 284.74 263.21 249.15 219.84 221.93 217.55 211.02 212.28 226.05 232.49 240.12 251.13 253.39 259.84 264.79 269.93 276.97 284.54 292.46 302.26 306.34 311.88 319.38 324.26 331.37 336.06 344.66 356.93 378.97 405.38 427.49 462.83 485.22 657.84 858.65 929.52 722.95 392.46 245.66 174.15 143.85 90.61 29.81 -199.44 -477.17 -657.84 -956.49 -2153.19 -3679.11 -4289.19 -4061.25 -3457.48 -2013.52 -1143.53 -670.24 -834.03 -1022.83 -1841.45 -2383.44 -2626.38 -3061.18 -3299.72 -3495.49 -3665.30 -3872.91 -3943.73 -3966.47 -3969.32 -3967.84 -3965.30 -3959.61 -3953.25 -3953.32
-5891.05 -5890.97 -5898.59 -5905.32 -5912.32 -5921.74 -5927.40 -5934.73 -5940.99 -5949.90 -5955.72 -5962.57 -5970.22 -5967.67 -5950.20 -5924.11 -5821.18 -5729.42 -4973.20 -4225.81 -3658.60 -2968.31 -551.78 -332.67 -276.63 -133.94 -55.12 -15.82 31.28 58.38 125.61 152.20 177.56 251.18 308.08 339.88 351.38 486.92 536.90 616.54 1011.40 1129.05 1370.93 1280.26 1116.57 1274.01 1381.71 1396.77 1122.44 972.66 816.48 664.32 545.25 598.52 488.97 532.32 482.73 614.66 767.74 683.44 559.93 462.73 397.36 365.58 360.01 323.54 324.94 328.84 313.15 287.12 264.51 258.12 243.87 236.06 226.09 217.94 227.00 233.93 243.82 249.01 252.10 256.97 264.17 270.91 277.94 285.52 289.54 301.10 307.87 313.19 317.29 324.49 328.67 332.71 339.83 346.37 367.18 376.31 397.17 428.09 444.67 525.15 706.95 788.48 565.05 307.08 189.15 157.99 115.65 68.78 2.28 -252.32 -610.34 -892.23 -1134.97 -2716.44 -4056.09 -4222.64 -3933.91 -3435.74 -1854.71 -966.68 -584.23 -718.80 -968.44 -1541.06 -2101.18 -2347.12 -2868.52 -3283.07 -3500.19 -3554.16 -3831.07 -3953.03 -3967.96 -3968.37 -3966.15 -3962.58 -3959.48 -3954.27 -3954.35
-5895.03 -5895.55 -5901.75 -5910.94 -5919.67 -5927.60 -5933.98 -5943.29 -5947.67 -5956.55 -5963.35 -5962.04 -5949.23 -5918.87 -5878.03 -5634.58 -5358.54 -4585.17 -3635.61 -2868.80 -2851.06 -993.39 -338.11 -258.32 -128.28 -58.01 -16.63 6.83 51.93 131.26 192.68 270.84 227.87 325.99 421.53 355.56 343.85 449.33 557.04 698.80 1013.77 1188.56 1352.52 1262.27 1079.30 1160.61 1213.08 1288.55 1192.15 1105.21 948.35 852.88 743.66 735.74 672.77 608.10 485.90 593.20 739.34 602.02 494.39 457.21 417.12 384.72 375.10 358.47 365.46 344.14 329.76 329.21 297.18 279.20 267.03 259.88 246.31 234.41 232.16 236.96 246.07 248.90 253.47 259.74 265.72 272.17 281.08 288.00 294.73 306.42 311.50 315.47 321.00 324.92 327.36 328.71 331.31 336.35 347.34 360.41 381.33 393.69 412.50 408.88 396.66 449.42 442.01 284.74 204.23 150.19 110.40 67.87 49.07 -189.22 -601.95 -896.85 -1348.76 -2759.91 -4061.04 -4205.63 -3963.82 -3132.87 -1816.85 -884.75 -621.15 -738.36 -1060.12 -1454.11 -1820.67 -2363.94 -2804.68 -3207.22 -3360.89 -3564.38 -3810.70 -3921.24 -3959.43 -3965.89 -3959.91 -3958.49 -3963.40 -3960.30 -3960.38
-5902.74 -5902.66 -5912.14 -5918.94 -5924.31 -5934.88 -5944.23 -5952.04 -5963.59 -5965.88 -5956.48 -5923.03 -5872.53 -5661.98 -5247.62 -4814.86 -4199.15 -3753.60 -2831.37 -1750.66 -736.54 -357.58 -240.77 -168.68 -62.71 -31.68 -4.32 20.63 86.82 222.26 339.80 404.00 291.46 361.35 490.42 425.08 448.03 485.38 554.22 656.98 719.63 914.28 1166.62 1212.72 1052.88 1058.01 1113.36 1078.67 1117.00 1088.44 1016.64 968.47 870.06 762.92 589.61 539.48 547.73 646.65 731.79 621.38 511.27 484.60 463.03 427.84 401.82 391.54 382.00 366.47 357.49 347.37 333.93 327.06 301.99 270.82 255.12 242.62 240.42 247.11 249.22 251.14 259.13 262.00 268.76 276.89 284.61 291.16 301.15 306.58 312.27 320.48 324.31 328.22 330.47 332.61 332.75 332.74 332.77 341.01 378.65 385.23 389.29 376.10 334.30 292.53 330.58 230.44 160.62 138.16 99.03 57.89 23.71 -157.70 -421.18 -847.30 -1683.50 -2296.07 -3577.15 -4108.58 -3914.41 -2951.10 -2058.19 -822.91 -646.82 -762.67 -1126.05 -1464.96 -1901.16 -2381.13 -2686.24 -3029.14 -3368.79 -3527.94 -3825.27 -3920.07 -3955.69 -3961.17 -3960.76 -3959.68 -3964.73 -3969.23 -3969.83
-5916.76 -5916.68 -5925.43 -5932.29 -5937.62 -5947.03 -5959.00 -5967.50 -5973.20 -5963.97 -5926.44 -5795.69 -5435.19 -5261.86 -4761.18 -4112.03 -3654.89 -2814.33 -1816.97 -1243.82 -464.10 -386.03 -264.06 -182.60 -70.78 -15.03 -1.27 20.08 54.53 253.82 481.88 527.89 335.72 348.57 577.78 585.40 524.98 511.87 504.67 682.73 811.17 1050.39 1308.64 1199.30 1058.89 971.68 967.95 1009.60 1017.60 977.42 985.99 1007.31 886.20 659.06 592.25 653.76 688.94 724.98 657.71 572.49 594.57 554.16 483.60 460.99 445.23 419.12 428.43 404.79 406.02 389.77 364.33 334.61 311.31 284.35 274.16 258.12 251.55 247.45 253.78 255.31 260.18 265.68 272.75 279.41 285.46 292.42 301.86 309.23 314.23 324.21 329.56 333.19 335.75 337.73 340.87 336.40 334.82 335.07 343.35 352.13 357.63 339.71 323.91 292.65 257.21 190.49 156.04 119.63 90.23 48.84 -22.61 -107.49 -733.80 -1196.16 -2250.32 -3075.87 -3917.35 -3914.82 -3623.02 -2684.53 -1339.32 -700.20 -571.71 -820.67 -1151.26 -1600.55 -2055.44 -2454.26 -2683.30 -2951.42 -3308.39 -3560.92 -3736.21 -3910.12 -3956.42 -3962.72 -3965.37 -3966.28 -3976.07 -3982.93 -3983.01
-5939.48 -5939.38 -5945.40 -5948.56 -5960.71 -5968.81 -5974.87 -5980.38 -5980.93 -5987.32 -5908.29 -5637.64 -5077.51 -4380.84 -3638.93 -3476.72 -3104.77 -2512.26 -1569.68 -821.79 -458.49 -396.24 -287.22 -170.29 -64.63 -17.57 8.51 72.86 157.23 320.56 503.73 620.14 545.30 506.79 410.97 593.17 715.85 640.02 609.34 794.75 953.90 1181.88 1307.28 1155.54 1088.95 1019.74 925.69 938.48 949.43 935.12 935.75 937.05 911.59 776.85 714.72 754.98 778.62 843.28 680.54 613.81 739.98 640.44 569.96 492.31 468.69 431.91 451.84 437.50 427.88 419.03 375.79 357.14 321.87 294.91 285.26 273.97 270.72 259.09 261.59 265.83 271.00 273.39 277.11 280.38 292.83 297.35 304.34 313.56 322.63 329.98 338.35 344.74 348.56 350.55 349.77 352.14 348.27 347.54 338.09 333.50 335.60 318.43 296.54 256.80 201.95 182.08 147.10 107.37 65.76 28.84 -25.07 -254.29 -1202.73 -1436.38 -2505.43 -3403.66 -3554.33 -3709.44 -3226.00 -2277.30 -1147.12 -558.60 -559.92 -890.33 -1178.81 -1563.07 -1984.62 -2338.57 -2614.65 -3005.58 -3345.74 -3500.23 -3740.84 -3882.56 -3963.75 -3972.04 -3978.19 -3979.31 -3991.45 -3998.56 -3998.65
-5967.70 -5967.33 -5970.91 -5974.13 -5981.32 -5986.19 -6017.09 -6024.86 -6031.84 -6041.50 -5854.11 -5571.78 -4735.00 -4067.08 -3590.15 -3454.27 -3250.60 -2703.70 -1453.61 -638.45 -409.41 -331.68 -231.59 -86.23 -54.29 -10.49 43.65 131.95 169.33 298.58 395.31 553.01 821.43 732.76 540.02 571.93 879.71 942.86 725.25 818.36 1063.85 1209.25 1158.85 1006.24 968.58 955.15 882.19 874.69 893.72 886.29 890.15 930.96 912.70 855.33 891.46 1001.60 1031.87 970.27 705.43 648.45 806.87 825.92 581.22 538.26 513.66 469.84 475.49 455.98 435.03 426.10 383.63 362.50 340.23 318.47 298.54 284.49 279.49 273.89 267.67 269.83 275.04 276.04 281.73 288.23 296.71 303.43 308.64 319.03 328.28 337.88 342.60 351.42 356.15 363.20 360.46 361.15 361.91 350.36 341.25 328.14 321.61 288.94 258.91 233.16 197.19 145.55 129.91 105.95 60.48 5.52 -162.07 -303.59 -1247.09 -2011.81 -2740.38 -3283.23 -3482.36 -3429.78 -2487.28 -1504.02 -699.75 -490.16 -539.29 -799.25 -1075.12 -1542.65 -2031.78 -2398.04 -2745.82 -3067.61 -3427.98 -3653.50 -3822.42 -3927.31 -3970.48 -3979.94 -3987.08 -4000.70 -4011.96 -4017.96 -4018.06
-6016.21 -6016.08 -6025.24 -6023.58 -6024.13 -6030.57 -6030.54 -6018.72 -6049.75 -5860.55 -5587.40 -5179.62 -4675.28 -4024.18 -3774.55 -3691.07 -3743.52 -3217.98 -1004.97 -474.16 -359.47 -275.06 -165.09 -41.87 -16.11 -4.82 62.50 215.27 262.98 394.44 488.16 647.56 847.13 918.00 811.65 716.31 953.75 1128.64 1061.54 1043.73 1152.56 1035.44 957.58 979.67 886.96 892.94 846.69 835.32 831.10 842.85 844.40 896.76 925.09 926.12 1018.97 1066.83 1155.38 1059.44 882.34 761.90 855.11 893.35 708.03 607.01 549.50 509.99 494.67 477.24 454.78 436.79 417.20 392.86 351.32 335.60 311.17 296.44 290.13 281.19 275.24 274.55 276.25 279.94 289.39 296.42 300.52 306.54 317.35 326.85 336.89 343.80 353.03 364.20 373.82 389.34 386.53 381.02 369.61 358.31 349.51 311.74 297.58 257.66 232.58 214.62 169.64 129.00 97.15 61.75 18.36 -72.30 -231.75 -372.03 -1972.81 -2781.63 -3070.33 -3100.75 -3198.73 -3160.61 -2075.60 -1030.10 -553.22 -404.73 -627.63 -852.65 -1029.80 -1499.50 -1829.94 -2386.62 -2728.33 -3156.29 -3589.32 -3775.67 -3889.55 -3967.82 -3983.92 -3998.31 -4009.34 -4018.40 -4031.40 -4037.59 -4037.68
-6115.50 -6114.21 -6082.03 -5997.98 -5983.39 -5980.54 -5908.47 -5705.02 -5596.24 -5382.01 -4984.67 -4513.82 -4442.63 -4161.31 -4145.04 -3997.32 -4151.41 -3448.21 -1346.33 -491.79 -321.60 -220.56 -125.91 -27.08 -14.41 21.09 73.48 234.18 303.46 364.27 329.78 536.07 721.83 785.79 931.51 926.90 1038.86 1185.15 1081.56 1109.90 1131.35 1083.23 947.09 881.28 837.22 850.13 791.85 811.75 799.11 764.67 804.55 846.52 883.28 928.86 983.95 954.62 1124.76 1122.82 1015.75 929.55 898.34 1000.18 901.51 642.03 596.82 544.55 549.33 507.40 482.38 464.03 435.39 403.20 373.48 353.17 320.74 311.93 300.87 292.95 287.08 286.88 286.12 288.48 293.37 297.35 308.03 316.60 329.35 334.43 345.81 358.53 368.41 377.68 384.60 403.30 401.29 394.65 379.80 361.35 342.93 309.91 290.19 247.39 219.70 176.71 144.16 109.67 66.26 43.45 13.74 -131.92 -420.70 -1018.19 -2090.75 -2879.22 -3115.36 -3158.94 -2890.53 -2611.70 -1564.73 -847.64 -410.99 -436.06 -571.69 -771.19 -1115.22 -1557.00 -1996.76 -2418.29 -2756.16 -3198.37 -3675.76 -3837.36 -3914.50 -3962.30 -4007.96 -4024.07 -4031.20 -4032.19 -4047.63 -4058.17 -4058.28
-5965.09 -5965.19 -5742.17 -5693.00 -5608.64 -5388.19 -5249.56 -5002.75 -4783.34 -4630.70 -4594.02 -4422.83 -4344.33 -4320.19 -4314.87 -4361.94 -4668.13 -2924.53 -1223.53 -540.70 -309.48 -235.83 -101.87 -32.31 0.18 48.03 64.68 142.65 262.22 247.46 267.45 405.95 493.77 558.30 888.10 1126.27 1200.01 1112.23 824.84 881.37 962.68 1027.82 995.07 913.66 823.06 736.37 749.65 772.92 760.78 762.97 779.71 789.73 845.75 875.81 888.63 905.83 1006.05 1186.20 1186.46 1079.40 1049.64 1183.21 1019.26 782.68 611.05 563.46 554.64 551.22 512.58 493.85 471.57 423.07 392.52 368.34 324.54 315.16 308.01 299.24 295.02 294.48 291.81 293.89 301.18 305.44 317.58 325.04 333.64 345.85 361.44 368.42 374.33 383.91 394.45 407.52 404.91 398.06 386.71 363.56 335.18 297.33 269.96 236.56 195.07 161.98 133.76 94.60 64.48 19.54 -36.67 -223.05 -784.77 -1134.06 -2004.98 -2845.15 -3231.66 -3282.17 -2851.87 -1929.35 -1246.48 -665.09 -358.74 -457.84 -654.93 -916.17 -1149.98 -1438.20 -1932.72 -2306.17 -2770.19 -3271.20 -3542.00 -3784.00 -3912.29 -4019.26 -4028.00 -4033.91 -4047.55 -4056.71 -4080.89 -4078.04 -4078.14
-5082.95 -5084.14 -5102.03 -4936.58 -4960.98 -4636.75 -4599.71 -4486.51 -4472.30 -4432.32 -4411.66 -4395.39 -4392.15 -4377.78 -4372.90 -4459.21 -4893.97 -3291.42 -1043.40 -445.54 -311.72 -215.14 -104.42 -29.84 1.36 52.79 79.24 120.40 171.81 248.69 317.47 368.71 476.53 486.16 628.13 911.46 1141.53 1005.23 732.70 716.89 836.39 948.17 930.24 802.62 740.21 716.69 723.13 735.41 751.07 746.61 761.10 766.50 793.62 812.34 828.88 900.07 931.96 1111.80 1183.48 1202.88 1225.78 1168.90 949.74 724.32 675.57 632.70 580.38 561.42 517.83 504.72 490.87 448.45 403.83 387.77 355.28 331.07 322.30 315.50 303.85 297.48 298.54 305.12 311.70 314.77 322.68 334.07 341.10 356.29 361.94 375.59 381.59 393.43 405.37 409.56 403.60 392.96 380.21 345.83 314.15 290.87 250.56 222.44 185.76 145.63 114.10 74.86 54.48 -9.45 -100.65 -656.41 -1092.17 -1300.10 -1957.90 -3153.54 -3437.48 -3658.50 -2962.78 -1695.41 -979.25 -440.97 -362.07 -504.91 -720.96 -1002.18 -1208.73 -1511.11 -1969.92 -2427.60 -2773.04 -3215.64 -3518.09 -3617.62 -3875.72 -4015.01 -4054.74 -4062.08 -4069.50 -4086.34 -4090.13 -4097.17 -4097.29
-4420.04 -4421.15 -4503.44 -4570.24 -4496.48 -4451.41 -4419.89 -4407.00 -4414.53 -4423.11 -4419.49 -4418.72 -4405.61 -4402.02 -4408.30 -4526.44 -4797.08 -3908.06 -1375.74 -357.69 -239.56 -154.01 -101.01 -45.18 2.44 31.98 78.14 108.06 148.67 289.25 404.84 474.04 661.32 770.81 826.95 945.75 943.96 912.45 795.18 625.20 822.81 929.68 941.07 713.61 680.06 700.27 692.90 693.07 730.28 719.65 749.65 752.81 750.63 766.59 817.00 856.11 919.31 979.63 1077.18 1119.54 1278.17 1154.49 988.90 810.93 814.13 708.06 615.79 575.27 524.19 505.92 485.66 457.41 424.55 388.49 372.04 347.22 329.37 321.24 313.97 303.22 307.14 308.95 314.35 320.83 334.74 339.72 346.79 360.80 368.23 376.01 390.56 397.28 406.32 402.89 398.80 393.22 367.88 357.15 314.79 272.60 246.06 209.93 168.22 141.84 98.43 71.85 33.45 -14.35 -66.38 -612.57 -943.72 -1382.87 -1931.63 -4367.36 -5138.73 -4512.46 -2842.50 -1278.78 -606.13 -462.05 -353.08 -590.45 -745.33 -1109.12 -1240.11 -1634.36 -1991.34 -2485.41 -2815.29 -3071.90 -3371.51 -3722.32 -3960.30 -4060.94 -4076.25 -4085.35 -4091.34 -4095.29 -4107.17 -4115.55 -4115.67
-4392.70 -4392.60 -4424.29 -4430.71 -4435.56 -4435.91 -4434.12 -4436.87 -4437.64 -4434.82 -4433.98 -4434.36 -4428.56 -4419.38 -4419.41 -4612.87 -4672.65 -3735.26 -2168.28 -332.32 -295.03 -219.02 -160.57 -84.04 6.87 27.23 67.33 110.87 144.73 211.40 397.41 479.64 619.97 701.50 890.92 865.19 771.72 808.15 773.94 698.59 788.64 873.83 905.08 696.86 613.01 639.64 658.40 671.77 682.13 699.07 732.80 736.42 739.40 751.71 776.67 821.69 840.10 876.30 942.95 1122.43 1351.92 1231.76 1037.50 1092.97 947.00 773.42 651.62 654.41 583.91 524.47 488.34 458.79 440.08 400.76 380.84 356.05 339.54 326.62 320.56 313.28 313.80 314.77 323.75 332.89 339.63 343.02 355.08 364.08 371.81 384.71 388.93 399.81 404.30 399.97 392.82 368.51 360.33 333.72 284.86 260.47 228.50 191.88 156.31 131.48 98.09 65.47 41.66 -0.75 -78.38 -380.92 -1225.38 -1812.62 -2967.53 -5169.37 -5494.16 -4331.53 -2029.55 -1006.76 -511.39 -405.65 -403.59 -658.95 -748.84 -1066.98 -1365.61 -1705.95 -2240.24 -2542.89 -3001.89 -3222.82 -3637.41 -3868.40 -3952.24 -4059.89 -4088.99 -4099.60 -4103.88 -4113.17 -4119.25 -4131.32 -4131.46
-4453.28 -4452.86 -4459.37 -4460.25 -4463.29 -4464.33 -4461.21 -4454.35 -4455.89 -4454.82 -4450.76 -4449.10 -4445.45 -4430.21 -4430.38 -4538.44 -5032.64 -5277.29 -2043.69 -419.98 -308.05 -250.81 -186.12 -67.76 5.27 22.67 53.74 61.56 49.67 124.36 294.13 387.40 399.37 598.09 685.96 495.94 558.33 673.63 673.00 595.88 608.35 646.95 640.46 594.74 581.99 600.62 654.10 630.59 654.68 664.62 689.83 691.91 713.31 741.03 758.73 779.51 830.75 928.27 1061.15 1214.04 1267.23 1276.21 1330.19 1224.15 963.26 787.39 752.16 704.11 635.41 549.83 534.96 480.01 445.43 419.62 379.52 359.66 346.99 336.77 326.20 322.96 321.87 323.77 333.57 340.53 348.07 353.63 366.35 370.09 380.17 385.95 388.47 394.21 396.93 393.32 381.59 355.16 338.91 302.48 278.55 242.92 201.25 178.20 138.93 113.81 88.36 62.05 28.41 -32.26 -74.44 -742.71 -1409.21 -2053.64 -4573.64 -5875.05 -5388.49 -4000.05 -2240.06 -859.21 -504.71 -386.85 -434.26 -519.24 -744.71 -1028.80 -1372.31 -1729.98 -2477.16 -2789.25 -3106.52 -3456.11 -3676.08 -3911.42 -4006.78 -4070.60 -4105.84 -4113.97 -4121.07 -4131.05 -4138.23 -4147.88 -4148.06
-4474.27 -4474.21 -4476.66 -4481.39 -4479.27 -4477.49 -4475.45 -4483.30 -4474.55 -4472.63 -4474.37 -4466.60 -4459.51 -4446.24 -4442.57 -4516.09 -4650.20 -4403.61 -1835.96 -482.80 -370.19 -284.25 -230.25 -107.72 -52.88 7.75 24.86 40.20 73.22 117.42 228.05 176.77 244.99 520.64 597.42 463.04 372.37 425.98 563.72 528.33 499.79 547.14 528.92 534.09 553.68 569.71 598.98 591.10 600.10 641.91 664.26 673.78 683.45 719.63 744.61 769.11 806.19 917.18 989.44 1191.25 1186.10 1290.98 1525.72 1326.49 1203.04 928.96 959.36 878.36 656.38 685.29 617.63 488.87 465.87 426.80 388.75 369.90 360.81 348.57 336.13 328.52 328.05 334.78 339.50 342.42 361.25 374.68 377.08 377.24 382.19 386.26 386.12 388.25 388.36 381.65 360.15 344.18 321.33 285.66 263.60 217.19 184.40 160.37 124.51 92.42 66.66 36.34 -24.77 -48.01 -267.85 -760.64 -1314.14 -3440.24 -5538.03 -6034.15 -5209.00 -3526.43 -1879.58 -616.98 -424.82 -372.19 -417.56 -519.26 -758.40 -1008.97 -1470.63 -1799.08 -2208.94 -2903.79 -3387.63 -3521.76 -3648.30 -3915.67 -4015.33 -4070.80 -4128.31 -4133.10 -4138.77 -4144.77 -4152.42 -4163.45 -4163.58
-4497.56 -4497.79 -4499.51 -4499.02 -4503.25 -4497.75 -4493.59 -4494.19 -4485.18 -4482.22 -4489.51 -4488.17 -4477.59 -4463.72 -4457.73 -4521.67 -4644.59 -4264.72 -2191.93 -494.19 -357.14 -305.94 -247.33 -225.71 -155.72 -50.43 6.36 34.79 43.07 62.76 141.31 196.61 307.73 433.91 571.25 408.71 330.91 404.26 500.68 512.45 437.66 456.65 474.29 504.92 522.40 542.13 537.11 560.60 592.07 621.20 637.50 663.15 675.05 704.79 734.20 754.16 792.02 831.38 990.35 1060.40 1176.12 1280.62 1470.43 1425.26 1241.86 1199.56 1190.83 1033.81 793.07 888.15 698.33 556.32 472.80 438.47 409.55 371.83 365.25 356.61 341.73 333.29 337.90 343.30 346.32 356.53 377.86 380.46 381.18 382.45 382.39 384.74 381.30 376.38 374.21 363.71 352.70 325.64 297.54 268.70 234.25 199.17 180.46 137.11 126.59 86.01 52.49 6.30 -36.85 -190.37 -334.98 -811.63 -1158.23 -2742.81 -4866.46 -5401.37 -5416.59 -4338.63 -1327.06 -880.41 -451.73 -389.73 -422.78 -531.00 -757.60 -1044.42 -1504.36 -1961.92 -2461.11 -3191.31 -3590.10 -3658.59 -3759.17 -3882.40 -3996.42 -4108.64 -4134.25 -4146.37 -4150.71 -4163.33 -4167.34 -4176.80 -4176.83
-4517.37 -4517.32 -4517.49 -4518.35 -4519.32 -4519.81 -4517.95 -4516.05 -4515.30 -4509.89 -4500.87 -4494.89 -4483.02 -4479.34 -4470.34 -4513.59 -4559.58 -4172.19 -2579.66 -462.40 -402.44 -312.54 -274.49 -244.00 -208.89 -89.47 -24.36 11.56 32.65 54.19 68.46 160.88 216.19 243.17 327.84 249.08 274.99 363.95 382.83 394.07 418.65 427.56 440.52 463.87 496.76 498.21 515.04 528.85 555.49 588.19 609.30 626.15 669.21 674.16 706.00 742.73 788.15 851.95 952.87 982.98 1025.60 1145.03 1225.92 1269.83 1134.21 1060.50 1206.01 1076.43 995.80 908.98 700.51 593.10 487.70 454.86 421.86 383.25 370.86 360.98 347.17 339.37 344.05 348.29 352.48 359.51 372.93 379.68 381.89 382.50 379.78 374.33 369.83 369.06 364.23 354.73 330.97 288.21 271.90 264.41 217.79 189.68 164.11 134.74 104.76 72.45 17.63 -32.94 -184.86 -355.08 -490.75 -875.22 -1080.49 -3385.89 -4444.53 -5492.00 -5514.90 -4397.57 -2535.30 -1408.66 -682.05 -474.52 -487.33 -551.16 -810.57 -1150.23 -1633.64 -2075.13 -2761.87 -3279.48 -3659.15 -3749.04 -3884.60 -3915.37 -4021.71 -4108.40 -4144.58 -4156.11 -4165.81 -4172.96 -4178.83 -4189.60 -4189.65
-4532.52 -4532.45 -4532.09 -4534.84 -4532.49 -4532.17 -4527.65 -4524.27 -4523.19 -4519.37 -4514.79 -4508.35 -4503.49 -4493.38 -4480.89 -4484.07 -4430.40 -4143.78 -2699.46 -744.26 -438.88 -389.96 -287.45 -265.83 -228.92 -130.22 -48.12 -15.39 15.85 43.86 55.51 96.19 102.49 171.24 212.73 235.06 249.48 294.24 331.33 345.32 371.14 379.33 409.78 419.97 439.10 454.45 495.37 514.09 517.29 548.58 578.41 610.81 649.95 655.49 689.61 728.21 794.67 872.01 982.56 983.54 910.92 1032.76 1055.13 1018.39 1049.67 890.04 1024.82 1046.91 965.08 844.80 783.41 669.60 513.06 467.39 439.29 395.05 377.08 362.95 349.68 347.18 344.36 346.57 356.22 361.33 370.81 373.50 378.84 379.15 373.64 366.46 361.26 356.02 346.26 336.28 315.78 282.83 260.96 235.56 215.79 189.58 158.81 118.51 87.09 50.51 15.04 -35.33 -291.94 -409.50 -646.72 -952.95 -1672.26 -3718.04 -5532.00 -5666.39 -5545.25 -4917.39 -3679.36 -2180.46 -1663.72 -563.97 -649.43 -686.61 -884.26 -1292.31 -1626.27 -2292.35 -2985.87 -3470.47 -3677.96 -3810.95 -3975.50 -4081.55 -4096.53 -4138.91 -4155.31 -4174.95 -4180.01 -4186.90 -4195.09 -4202.55 -4202.62
-4545.17 -4545.10 -4545.29 -4548.07 -4545.93 -4543.31 -4541.00 -4539.56 -4537.01 -4533.08 -4524.84 -4520.22 -4511.01 -4501.73 -4495.75 -4471.79 -4373.96 -4090.83 -2958.34 -1424.14 -536.26 -404.59 -301.78 -259.99 -223.65 -143.52 -78.35 -14.97 -11.15 7.05 43.41 69.04 120.01 146.67 155.51 195.29 239.67 278.50 318.04 337.00 340.92 349.10 368.96 384.90 433.39 430.55 454.78 481.91 504.29 523.38 553.69 566.82 618.65 647.77 688.42 722.57 796.09 878.97 949.10 900.94 856.63 929.01 960.27 912.47 1032.67 899.04 897.40 820.39 832.58 704.93 731.04 716.30 572.15 484.41 438.94 404.71 385.88 365.76 351.94 345.64 343.33 347.52 352.96 359.69 365.31 366.51 363.10 368.07 364.78 355.09 347.90 340.84 327.83 314.35 301.27 277.99 256.52 211.27 192.50 168.13 144.25 111.28 77.15 47.85 13.23 -74.24 -282.98 -517.02 -709.41 -1632.06 -2527.89 -3904.15 -5458.24 -5627.57 -5585.22 -5440.82 -4953.06 -3182.82 -2179.53 -1316.84 -772.88 -842.11 -1058.89 -1539.77 -2000.79 -2613.30 -3303.03 -3675.07 -3785.42 -3934.23 -4084.67 -4113.28 -4143.52 -4162.88 -4170.79 -4187.05 -4191.79 -4198.03 -4205.38 -4214.08 -4214.16
-4556.83 -4556.75 -4557.88 -4555.94 -4560.41 -4556.54 -4554.13 -4550.47 -4547.64 -4542.41 -4538.34 -4528.68 -4520.04 -4509.98 -4496.61 -4478.70 -4399.85 -4282.02 -3604.60 -2707.76 -923.16 -374.84 -333.33 -290.57 -228.23 -146.22 -73.32 -36.52 -19.26 -0.31 22.13 62.78 107.50 135.50 145.96 169.54 214.75 243.67 302.29 305.70 305.14 342.33 354.82 365.56 394.94 406.35 418.52 446.50 476.31 481.33 520.93 558.93 625.99 687.13 762.63 823.65 853.82 958.69 980.00 859.71 795.61 835.46 801.21 829.11 850.87 828.68 700.15 707.55 705.01 638.70 637.37 633.00 582.28 488.14 449.05 405.15 382.20 363.36 353.52 346.08 341.41 340.87 343.58 350.79 351.39 359.48 353.91 354.17 353.25 342.62 335.73 318.49 308.04 285.58 272.99 235.77 224.87 192.65 174.00 153.41 130.03 92.81 67.11 39.18 -0.22 -119.52 -353.75 -660.70 -765.91 -1699.57 -3281.82 -5265.09 -5439.31 -5595.51 -5591.06 -5558.67 -5453.67 -4866.27 -3312.69 -2229.27 -1105.65 -1095.55 -1267.07 -1528.07 -2305.43 -3125.44 -3285.96 -3847.47 -3932.42 -4007.69 -4148.56 -4175.12 -4181.60 -4181.26 -4185.22 -4197.03 -4202.91 -4208.16 -4217.73 -4225.28 -4225.35
-4568.01 -4568.36 -4569.41 -4569.24 -4568.49 -4569.53 -4564.22 -4560.81 -4561.28 -4549.35 -4542.00 -4535.32 -4526.29 -4515.05 -4499.32 -4493.45 -4429.00 -4319.74 -4021.12 -3512.65 -2754.36 -761.82 -390.73 -322.29 -246.91 -191.62 -100.64 -52.28 -31.65 -14.65 13.60 44.70 85.99 113.87 136.19 156.13 195.74 204.40 223.22 279.32 283.27 307.66 326.67 346.80 341.24 360.35 413.15 425.75 454.23 468.31 510.04 587.76 620.24 667.21 750.60 920.56 1052.20 1059.12 987.99 814.27 762.49 743.45 729.90 778.52 761.30 720.47 661.41 662.50 627.58 607.70 569.12 564.04 522.26 476.08 428.87 405.78 378.98 360.66 344.56 333.80 331.02 332.04 332.52 330.84 332.28 336.90 345.81 345.62 347.14 335.08 319.33 295.76 279.51 266.20 237.07 219.85 203.06 170.37 142.84 116.36 106.53 86.73 72.01 24.29 -53.60 -160.15 -466.17 -774.76 -1106.75 -2500.36 -4401.13 -5284.05 -5581.51 -5580.71 -5590.89 -5588.05 -5491.21 -5287.62 -3968.60 -2402.85 -1290.40 -1244.18 -1464.14 -1780.75 -2282.94 -2931.84 -3376.84 -3865.00 -4066.92 -4158.10 -4171.01 -4187.67 -4193.58 -4192.14 -4195.41 -4211.83 -4218.81 -4220.39 -4226.40 -4235.06 -4235.13
-4578.78 -4578.70 -4579.79 -4580.90 -4581.10 -4578.70 -4577.86 -4571.14 -4568.69 -4566.50 -4557.72 -4547.15 -4532.68 -4526.05 -4518.60 -4511.68 -4490.29 -4476.10 -4475.08 -4530.57 -2427.94 -889.51 -485.49 -361.46 -245.88 -201.12 -134.92 -92.45 -51.56 -31.63 12.86 42.38 64.09 99.73 129.14 150.63 167.34 180.29 198.37 240.63 260.99 277.70 289.06 312.32 318.11 338.68 385.20 414.84 412.52 456.41 525.17 661.43 743.72 742.07 701.93 824.83 1085.62 1073.34 948.42 882.32 794.70 705.43 697.64 702.12 659.94 654.05 625.12 624.11 588.55 568.09 553.37 516.39 497.48 467.62 429.47 402.88 380.22 352.81 342.29 327.68 321.37 316.83 314.44 310.40 318.55 330.15 336.16 341.65 345.74 326.68 306.87 282.98 250.87 228.71 218.34 181.45 181.10 157.73 121.31 94.72 85.58 62.10 25.68 -31.62 -149.51 -246.33 -560.04 -917.62 -1771.94 -2918.75 -4704.90 -5378.83 -5560.59 -5576.74 -5591.65 -5591.37 -5554.94 -5386.39 -4119.02 -2949.96 -1486.45 -1414.28 -1708.49 -2216.86 -2624.04 -3259.62 -3768.46 -3984.18 -4155.44 -4179.03 -4194.33 -4203.56 -4216.16 -4213.08 -4211.85 -4218.92 -4224.39 -4228.96 -4234.08 -4244.46 -4244.54
-4589.20 -4589.73 -4590.02 -4590.58 -4588.51 -4586.71 -4585.47 -4583.52 -4578.78 -4573.41 -4564.55 -4556.34 -4548.35 -4543.47 -4532.20 -4518.68 -4500.40 -4504.54 -4530.20 -4646.44 -4560.11 -2975.37 -509.55 -368.75 -309.36 -255.60 -197.60 -128.52 -121.67 -65.31 7.77 36.71 61.54 76.73 85.55 109.99 154.18 168.95 164.82 205.60 218.64 241.97 268.84 285.42 305.67 317.84 349.31 372.83 399.20 482.56 562.89 638.69 852.67 833.09 867.63 996.09 1187.80 1205.04 1027.50 837.01 708.15 665.74 651.18 641.50 622.63 587.62 575.49 574.68 571.76 538.39 519.65 493.68 478.57 457.74 428.86 390.76 374.16 346.10 335.15 320.30 312.25 302.44 295.79 293.69 289.55 298.05 305.26 321.56 331.65 305.73 269.61 252.46 225.35 215.98 193.38 157.03 133.48 121.04 101.73 87.18 76.10 45.28 14.51 -45.97 -139.82 -300.20 -648.22 -911.23 -1177.86 -2722.53 -4979.96 -5484.82 -5575.91 -5578.42 -5592.05 -5596.00 -5559.75 -5431.86 -4231.79 -2929.19 -1710.16 -1582.04 -1865.98 -2469.30 -3153.53 -3604.82 -3784.78 -3998.53 -4149.01 -4186.06 -4199.83 -4212.87 -4225.63 -4222.58 -4226.17 -4229.56 -4232.21 -4239.34 -4243.89 -4253.60 -4253.67
-4599.22 -4599.15 -4599.12 -4601.73 -4603.69 -4602.86 -4595.61 -4594.22 -4589.67 -4583.64 -4577.58 -4566.61 -4558.70 -4551.30 -4545.27 -4532.41 -4516.31 -4508.79 -4516.85 -4569.01 -4517.64 -3284.33 -838.69 -468.63 -363.39 -316.22 -267.73 -213.11 -172.38 -124.60 -24.07 9.02 31.84 49.59 74.04 82.54 121.07 148.01 159.61 177.39 187.74 205.21 224.26 254.86 284.30 302.56 309.97 337.00 403.58 453.85 502.96 542.30 822.27 907.89 1106.96 1243.63 1224.67 1216.55 1049.51 865.80 785.06 645.68 598.41 583.62 567.16 561.62 561.72 561.52 527.90 512.29 498.27 469.96 452.63 426.03 412.98 382.45 358.98 322.79 313.15 302.21 299.77 285.57 285.52 275.10 276.01 275.40 282.23 299.13 304.37 291.21 266.37 241.32 206.89 186.14 164.46 150.88 114.55 96.73 88.57 65.19 48.13 37.15 0.18 -132.04 -279.64 -379.15 -711.11 -809.70 -1446.05 -2773.70 -4386.19 -5468.34 -5584.15 -5584.15 -5592.85 -5594.26 -5559.06 -5334.17 -3901.44 -2742.97 -1635.13 -1567.75 -2012.26 -2694.66 -3124.07 -3771.80 -4020.80 -4067.22 -4171.07 -4189.68 -4205.26 -4221.52 -4232.60 -4238.69 -4238.25 -4242.93 -4242.80 -4246.14 -4249.93 -4261.60 -4261.68
-4608.93 -4608.86 -4609.87 -4611.09 -4610.60 -4609.26 -4608.82 -4604.00 -4599.66 -4594.28 -4590.91 -4576.18 -4570.76 -4567.85 -4553.14 -4543.35 -4525.43 -4516.88 -4509.88 -4510.31 -4304.81 -3729.21 -1858.15 -773.94 -565.94 -357.26 -282.70 -288.54 -297.66 -285.68 -202.24 -32.83 -10.65 17.28 51.54 75.42 90.74 108.32 133.43 143.25 157.29 175.74 196.77 209.77 239.36 261.75 287.70 334.01 476.50 528.04 599.04 714.94 724.57 999.74 1125.78 1203.46 1023.58 980.67 918.45 958.99 831.56 678.70 558.29 559.50 528.88 539.10 537.20 514.64 496.15 492.46 484.47 458.43 417.13 400.02 385.25 371.42 341.35 317.25 303.66 290.13 275.16 272.50 261.63 247.48 245.94 251.04 258.94 272.33 280.15 250.79 242.73 210.15 183.73 153.01 139.83 107.03 80.24 73.85 61.49 37.03 25.87 -19.28 -100.17 -170.41 -344.32 -506.08 -760.28 -1116.76 -1609.03 -2366.85 -3927.34 -5105.82 -5543.34 -5547.38 -5577.89 -5567.83 -5444.59 -5170.55 -3565.65 -2628.26 -1478.41 -1585.88 -2043.37 -2861.84 -3417.01 -3841.29 -4056.95 -4162.68 -4176.64 -4195.59 -4209.18 -4233.19 -4246.27 -4246.22 -4252.22 -4249.94 -4250.27 -4254.34 -4259.28 -4266.56 -4267.33
-4618.25 -4618.18 -4618.73 -4621.44 -4622.21 -4620.34 -4617.62 -4614.61 -4612.95 -4604.39 -4600.07 -4594.88 -4588.35 -4578.68 -4568.69 -4563.71 -4549.12 -4533.52 -4502.01 -4418.73 -3938.49 -3407.79 -2348.19 -1105.17 -963.60 -836.21 -780.50 -480.53 -406.29 -353.06 -266.89 -135.12 -40.49 -6.47 -2.40 41.91 65.96 85.82 99.86 114.89 144.81 169.74 186.23 209.09 211.53 222.27 237.12 336.48 418.29 356.50 588.16 883.85 854.10 1003.17 1013.43 993.82 848.04 649.51 668.87 756.13 684.18 550.59 529.10 498.30 486.43 487.78 488.49 481.77 471.64 454.98 453.33 420.59 405.99 385.98 365.95 353.70 317.88 304.40 297.48 271.18 253.01 238.69 221.10 218.82 222.00 219.40 234.35 245.04 247.99 245.37 220.95 194.90 163.70 133.63 115.54 91.24 55.57 51.37 32.53 17.96 -6.12 -71.93 -117.13 -222.18 -324.96 -633.14 -888.07 -1357.56 -2364.80 -3404.39 -4224.68 -5275.88 -5488.34 -5527.42 -5559.74 -5557.19 -5487.63 -4903.22 -3387.91 -2175.95 -1615.00 -1872.30 -2512.27 -3218.70 -3872.84 -4081.61 -4150.16 -4165.71 -4183.29 -4204.65 -4217.89 -4233.05 -4255.20 -4257.25 -4259.79 -4260.85 -4261.87 -4261.07 -4264.64 -4274.20 -4274.28
-4627.10 -4627.78 -4629.75 -4629.17 -4629.91 -4628.35 -4628.46 -4624.30 -4624.46 -4619.64 -4615.54 -4609.81 -4607.32 -4591.80 -4582.25 -4576.75 -4571.39 -4562.46 -4517.48 -4354.65 -3895.42 -3026.39 -2089.47 -1604.69 -1741.49 -1626.59 -1390.91 -603.89 -517.39 -421.75 -305.22 -182.60 -79.85 -41.55 -31.08 18.39 51.39 65.46 76.32 90.57 117.31 121.18 162.69 179.73 178.84 202.51 211.50 216.02 318.11 350.96 694.18 954.47 1050.44 983.94 755.48 714.56 734.73 576.53 519.69 665.76 609.50 472.27 454.40 467.01 465.68 467.90 460.30 457.97 453.52 431.63 423.08 401.36 387.67 349.92 324.55 313.14 299.55 286.35 265.53 236.16 229.48 211.35 206.52 204.37 207.23 198.15 214.84 219.49 218.80 208.76 189.98 179.42 130.66 113.73 97.28 59.22 40.63 30.23 6.50 -39.30 -83.51 -165.90 -233.38 -198.81 -371.14 -737.29 -927.92 -1560.90 -2192.31 -4010.98 -4901.59 -5436.19 -5528.60 -5547.64 -5555.88 -5545.30 -5348.51 -5127.38 -2987.31 -1813.22 -1925.63 -2685.66 -3005.95 -3449.88 -3925.12 -4128.61 -4154.23 -4181.87 -4200.28 -4216.38 -4232.39 -4246.39 -4261.46 -4263.42 -4267.17 -4269.19 -4267.20 -4268.99 -4272.29 -4279.24 -4279.31
-4635.41 -4635.34 -4635.87 -4636.27 -4638.43 -4642.00 -4638.72 -4635.92 -4635.65 -4629.55 -4629.15 -4623.45 -4620.19 -4612.47 -4605.91 -4596.99 -4593.54 -4580.03 -4561.40 -4421.75 -4048.25 -3161.36 -2479.79 -2204.91 -2432.54 -2737.20 -2625.04 -957.88 -605.15 -466.93 -382.39 -247.34 -168.71 -72.79 -44.27 -9.46 17.76 42.10 57.34 67.44 77.40 82.17 108.10 137.56 122.84 136.67 163.98 192.03 247.43 379.78 715.21 893.45 1030.11 768.78 688.47 519.45 589.76 525.17 423.78 537.31 476.55 439.89 419.42 436.61 432.44 438.88 428.10 440.91 429.20 411.03 397.46 369.33 353.77 332.88 317.30 299.64 276.39 264.62 245.74 235.49 208.22 202.03 186.75 184.50 174.44 180.19 190.18 188.02 186.05 180.11 164.68 141.56 119.03 89.60 77.21 48.87 30.05 8.71 -48.14 -92.42 -224.35 -217.70 -320.97 -322.25 -555.83 -1043.63 -1599.32 -2655.37 -3331.66 -4328.53 -5122.49 -5406.06 -5515.97 -5534.53 -5548.32 -5494.88 -5319.91 -4458.53 -2725.42 -2226.73 -2334.18 -2947.63 -3498.55 -3607.01 -3910.86 -4139.62 -4168.95 -4199.76 -4215.07 -4228.54 -4243.22 -4249.11 -4271.78 -4273.99 -4281.60 -4278.83 -4273.53 -4275.13 -4277.46 -4283.52 -4283.59
-4643.45 -4643.38 -4644.75 -4647.79 -4649.60 -4648.86 -4651.74 -4649.04 -4645.32 -4647.13 -4645.15 -4638.44 -4634.71 -4628.80 -4629.48 -4620.25 -4614.65 -4609.26 -4595.71 -4468.59 -4246.00 -3842.17 -3485.20 -3427.27 -3509.86 -3868.19 -3431.63 -2179.82 -1024.75 -605.05 -434.91 -346.24 -221.51 -112.21 -64.71 -55.32 -15.29 15.21 29.78 38.58 62.51 73.51 82.54 94.42 96.28 113.31 151.70 163.92 223.14 305.47 467.78 767.87 919.32 699.84 478.03 344.99 403.72 415.55 384.52 423.60 410.02 384.55 382.74 405.87 389.90 381.06 400.89 388.50 393.77 382.07 350.17 344.31 334.88 292.50 274.99 279.55 257.69 235.70 230.94 215.40 190.58 184.91 175.36 164.82 155.47 158.24 159.47 162.57 155.55 145.69 136.83 120.99 79.20 62.35 47.07 34.81 23.93 -16.10 -79.06 -198.27 -267.45 -319.97 -465.50 -620.77 -940.44 -1658.59 -2188.55 -3739.48 -4755.29 -5243.74 -5294.81 -5340.37 -5473.70 -5528.76 -5540.07 -5480.81 -5253.16 -4050.52 -2763.88 -2278.10 -2706.55 -3070.31 -3615.12 -4011.48 -4045.83 -4163.41 -4180.31 -4206.18 -4229.77 -4242.90 -4259.46 -4276.35 -4281.06 -4281.11 -4286.84 -4285.24 -4278.49 -4279.47 -4281.41 -4288.56 -4288.63
-4651.48 -4651.41 -4652.87 -4656.95 -4656.54 -4660.27 -4660.64 -4657.63 -4658.63 -4659.04 -4657.72 -4653.33 -4651.73 -4651.95 -4645.32 -4643.76 -4633.00 -4631.34 -4618.52 -4603.40 -4536.15 -4306.76 -4182.92 -4142.19 -4373.84 -4412.19 -4103.12 -2921.49 -2131.11 -738.66 -559.66 -352.34 -274.27 -211.35 -172.63 -122.14 -52.37 -9.67 -13.21 12.30 30.88 51.77 64.90 55.24 85.67 97.08 123.13 123.19 167.02 208.32 390.64 624.44 705.19 508.90 414.61 316.09 319.60 336.97 358.38 326.67 338.28 368.51 379.92 368.11 369.20 365.28 365.55 365.84 361.95 348.85 339.14 330.63 315.30 278.03 275.02 261.17 235.41 212.39 191.44 185.63 180.94 160.80 149.24 137.55 133.07 127.25 134.11 126.89 118.98 110.65 101.02 76.71 60.31 42.75 30.99 20.99 2.99 -26.80 -156.07 -271.76 -363.47 -830.14 -936.97 -1791.98 -2234.46 -2290.79 -3909.65 -4646.12 -5231.53 -5416.62 -5355.55 -5325.46 -5407.11 -5446.87 -5503.22 -5455.43 -4908.81 -4381.83 -3022.48 -2336.17 -3005.76 -3468.91 -3822.16 -4124.87 -4142.85 -4180.12 -4198.66 -4225.93 -4241.26 -4254.02 -4270.29 -4286.85 -4290.00 -4291.57 -4294.87 -4292.23 -4285.44 -4284.30 -4285.85 -4294.20 -4294.26
-4659.75 -4659.68 -4662.07 -4665.36 -4665.76 -4670.45 -4672.13 -4673.96 -4673.35 -4670.78 -4673.54 -4673.76 -4667.64 -4668.36 -4667.04 -4671.42 -4663.17 -4661.34 -4659.19 -4639.97 -4645.87 -4630.79 -4546.92 -4547.72 -4605.05 -4651.97 -4625.38 -3805.50 -2572.61 -930.49 -547.11 -399.79 -332.57 -287.39 -198.98 -178.12 -120.68 -80.71 -41.97 -33.01 7.02 26.46 23.59 11.44 60.10 69.51 69.98 76.19 120.68 192.72 348.47 498.46 517.48 328.71 327.01 270.32 262.91 278.18 301.32 304.55 311.74 317.52 352.77 330.13 327.68 329.00 334.77 333.45 336.92 325.49 321.49 298.41 275.65 270.22 237.21 220.94 203.15 189.97 174.69 157.65 155.16 137.84 129.20 125.33 117.89 98.81 101.84 105.74 92.33 82.88 75.86 59.42 46.58 22.64 3.09 -13.54 -44.21 -134.16 -215.24 -287.21 -783.16 -1050.35 -1331.33 -2580.83 -3541.80 -4110.22 -4740.00 -5326.90 -5413.90 -5466.99 -5466.46 -5404.13 -5395.91 -5468.07 -5520.25 -5493.43 -5092.89 -3707.97 -2966.32 -2479.08 -3261.55 -3726.90 -3915.18 -4136.62 -4179.45 -4198.77 -4226.63 -4239.23 -4255.72 -4270.18 -4284.66 -4291.43 -4297.36 -4299.35 -4298.28 -4298.03 -4292.32 -4289.80 -4290.84 -4298.87 -4298.93
-4668.47 -4668.41 -4669.96 -4673.83 -4677.55 -4679.88 -4681.25 -4683.88 -4687.46 -4688.47 -4689.61 -4691.06 -4693.36 -4692.59 -4692.68 -4690.88 -4688.95 -4682.23 -4676.74 -4683.58 -4667.07 -4657.81 -4638.66 -4660.15 -4649.73 -4638.49 -4636.34 -4504.62 -2674.34 -1100.44 -636.45 -515.14 -394.84 -350.60 -256.87 -230.29 -187.32 -162.14 -110.54 -67.87 -37.10 -16.39 -8.44 -15.52 -0.65 39.58 47.55 68.65 86.01 129.54 256.69 333.27 323.68 235.73 210.51 220.87 243.80 247.18 256.45 267.11 271.43 275.66 306.26 293.29 286.54 296.46 295.18 306.62 301.86 301.37 269.60 263.15 257.93 248.27 226.18 197.24 193.58 167.72 146.90 135.89 120.96 115.55 113.94 93.76 93.85 83.75 78.53 78.53 64.33 55.19 43.06 35.96 26.95 -11.86 -73.14 -142.60 -175.38 -246.44 -303.01 -480.87 -1399.37 -1490.31 -2422.21 -3508.63 -4682.37 -5173.82 -5349.40 -5437.35 -5443.79 -5487.76 -5515.71 -5482.62 -5410.33 -5516.57 -5463.06 -5334.03 -4693.30 -3656.02 -2605.42 -2587.38 -3298.98 -3828.45 -4059.24 -4160.83 -4197.55 -4216.98 -4241.93 -4256.50 -4268.52 -4275.60 -4291.20 -4299.21 -4303.53 -4304.59 -4312.44 -4303.04 -4297.53 -4294.21 -4296.00 -4304.01 -4304.07
-4677.68 -4677.62 -4681.36 -4683.81 -4688.70 -4692.63 -4692.54 -4694.99 -4697.25 -4698.90 -4701.29 -4702.37 -4702.43 -4708.32 -4714.31 -4714.10 -4713.54 -4709.94 -4709.58 -4700.70 -4706.68 -4696.23 -4689.77 -4692.66 -4676.01 -4666.97 -4661.61 -4117.82 -2728.11 -1329.33 -930.29 -598.26 -509.28 -490.18 -363.84 -333.40 -254.30 -251.15 -188.70 -99.46 -94.06 -39.97 -42.87 -38.87 -24.19 -13.04 29.63 45.50 44.53 49.89 148.38 211.61 146.15 157.82 187.43 190.21 202.31 198.98 231.55 240.02 242.55 242.18 257.02 263.42 255.28 257.66 265.33 265.17 279.45 255.94 238.01 237.04 227.15 210.38 176.14 179.47 164.28 126.00 114.19 101.33 102.17 97.59 88.52 83.73 71.15 68.88 61.92 42.47 39.36 43.36 29.05 -4.15 -53.28 -111.69 -219.78 -227.42 -263.60 -441.31 -633.82 -836.37 -1693.30 -3116.19 -3852.57 -4631.96 -4978.82 -5244.90 -5403.84 -5465.09 -5569.61 -5567.50 -5506.40 -5309.33 -5163.01 -5055.92 -4994.04 -4635.65 -4400.31 -3228.18 -2484.66 -3060.22 -3604.92 -4071.97 -4186.80 -4203.38 -4226.54 -4240.81 -4262.27 -4271.75 -4288.89 -4299.15 -4308.25 -4311.66 -4313.59 -4314.20 -4319.14 -4311.30 -4305.44 -4303.33 -4304.45 -4309.46 -4309.53
-4687.56 -4687.50 -4689.98 -4696.04 -4700.58 -4703.82 -4708.06 -4710.53 -4710.22 -4714.42 -4717.90 -4720.06 -4723.89 -4722.51 -4732.45 -4732.79 -4735.19 -4737.55 -4732.38 -4733.26 -4734.89 -4721.76 -4720.17 -4716.18 -4688.19 -4663.02 -4620.42 -4277.68 -3427.72 -2578.05 -1657.69 -1129.06 -900.88 -696.36 -517.29 -448.32 -340.10 -289.40 -253.58 -236.72 -182.89 -124.54 -99.82 -60.59 -52.99 -27.62 -0.04 -10.16 6.21 28.38 80.21 95.55 82.50 117.51 146.84 147.46 161.75 181.76 189.56 196.78 212.19 208.10 211.07 228.54 212.34 234.74 240.87 233.34 228.51 222.95 220.88 208.81 198.64 177.27 166.33 138.51 121.25 110.99 106.31 96.04 79.95 75.16 70.22 62.69 57.03 56.97 33.79 16.74 10.28 7.65 -18.34 -75.33 -126.40 -177.32 -223.30 -255.94 -310.52 -449.96 -1505.69 -3475.46 -3539.11 -4296.17 -4932.70 -5195.82 -5376.19 -5417.86 -5435.95 -5523.41 -5627.14 -3963.42 -5059.70 -4545.29 -4244.06 -3536.13 -3534.05 -3436.81 -3010.94 -2577.07 -2631.99 -3197.56 -3873.24 -4145.36 -4196.54 -4223.19 -4241.78 -4255.76 -4273.17 -4283.52 -4296.52 -4307.82 -4317.15 -4320.82 -4324.65 -4322.18 -4327.65 -4312.91 -4312.42 -4312.52 -4311.95 -4315.75 -4315.82
-4698.50 -4700.08 -4703.98 -4705.81 -4709.81 -4714.31 -4718.50 -4718.56 -4729.49 -4732.66 -4731.67 -4735.93 -4738.13 -4749.12 -4752.31 -4756.86 -4758.07 -4767.01 -4764.30 -4765.20 -4765.14 -4749.09 -4740.67 -4725.11 -4708.27 -4685.62 -4611.60 -4456.52 -4437.69 -3485.30 -2013.95 -1778.92 -1362.84 -927.45 -782.93 -534.07 -438.82 -372.43 -340.52 -298.13 -251.54 -191.31 -128.82 -102.84 -83.90 -38.95 -25.10 -16.77 -9.41 3.04 48.29 57.56 69.22 79.57 113.75 109.21 120.81 155.18 147.76 174.10 171.60 174.00 184.65 192.98 178.49 196.86 202.76 198.02 208.38 209.99 172.44 159.43 163.02 137.65 134.28 121.21 108.10 104.81 88.35 81.47 59.46 61.15 57.84 49.81 42.43 31.70 8.52 9.27 -3.45 -9.85 -50.79 -127.73 -202.46 -258.72 -305.44 -412.22 -433.91 -604.12 -2254.74 -3524.58 -4631.83 -4849.83 -5157.58 -5446.53 -5234.32 -4912.71 -4783.20 -4318.44 -4391.02 -1534.95 -1486.03 -1470.36 -784.17 -1694.10 -2221.23 -2813.34 -2614.16 -2621.52 -2686.05 -3347.44 -3881.40 -4185.56 -4218.65 -4242.01 -4253.70 -4266.68 -4283.97 -4298.60 -4313.00 -4315.84 -4326.52 -4326.84 -4332.75 -4332.77 -4331.98 -4327.02 -4316.75 -4318.41 -4319.22 -4321.46 -4321.52
-4710.80 -4710.74 -4712.24 -4719.38 -4725.80 -4726.71 -4734.77 -4739.29 -4741.89 -4744.40 -4753.26 -4755.26 -4759.64 -4764.30 -4773.20 -4773.30 -4771.71 -4783.06 -4785.52 -4789.01 -4791.62 -4784.14 -4760.73 -4740.95 -4728.43 -4708.11 -4686.03 -4628.01 -4529.92 -4137.02 -3227.15 -2867.03 -2470.46 -2074.89 -1343.47 -769.79 -685.80 -454.03 -398.46 -349.03 -316.78 -266.36 -203.93 -163.88 -127.47 -94.13 -47.83 -38.92 -19.00 -17.51 4.21 42.28 50.11 68.57 67.61 74.21 92.72 115.83 106.39 110.16 124.89 121.00 141.34 162.89 154.71 141.03 155.23 179.37 166.93 153.99 147.45 149.86 139.96 108.03 105.00 93.63 87.60 81.34 67.75 56.41 47.28 42.81 41.59 40.30 20.75 9.10 -2.08 -9.46 -27.63 -56.92 -95.94 -159.42 -314.09 -367.15 -663.76 -735.55 -1317.64 -1487.44 -2678.63 -3842.32 -4553.33 -5044.68 -5225.43 -5022.03 -4183.08 -3178.05 -3223.08 -2478.40 -303.96 -89.92 -139.02 14.76 -189.88 -88.83 -1403.87 -2319.77 -2860.80 -3041.04 -3183.73 -3447.47 -4095.57 -4202.15 -4240.82 -4262.22 -4276.36 -4293.77 -4304.56 -4313.10 -4325.71 -4338.90 -4338.82 -4339.09 -4343.15 -4341.77 -4341.09 -4337.64 -4328.94 -4326.26 -4325.16 -4328.03 -4328.09
-4724.96 -4724.91 -4728.44 -4733.62 -4744.24 -4743.27 -4748.37 -4754.49 -4759.67 -4767.87 -4766.58 -4770.54 -4774.16 -4780.22 -4786.64 -4793.42 -4796.82 -4803.46 -4807.93 -4817.73 -4813.33 -4795.92 -4771.94 -4759.76 -4742.66 -4729.21 -4709.73 -4681.67 -4627.86 -4499.31 -3978.71 -3274.79 -3185.61 -3630.58 -2767.28 -1909.10 -978.34 -1012.83 -489.68 -447.35 -367.44 -311.92 -276.39 -234.82 -222.71 -151.80 -112.78 -70.62 -48.12 -35.75 -27.04 -8.08 6.24 38.99 47.45 56.63 62.87 61.16 85.21 96.27 103.63 99.29 109.75 117.58 119.50 117.33 141.93 136.44 124.21 132.86 116.46 107.07 93.17 75.61 71.47 66.22 65.79 59.14 41.35 33.45 29.60 29.89 20.96 14.55 1.28 -3.49 -8.58 -25.56 -63.04 -99.10 -146.70 -255.18 -423.93 -569.58 -715.18 -993.95 -2342.47 -3444.25 -3456.33 -4087.64 -4371.72 -4561.05 -4672.92 -2998.54 -1562.90 -397.59 -98.05 -37.95 5.46 15.44 21.92 20.04 7.12 -13.57 -563.05 -2408.94 -2985.81 -3318.35 -3471.56 -3848.69 -4091.30 -4245.42 -4263.20 -4279.40 -4297.56 -4312.11 -4319.95 -4334.77 -4343.47 -4347.93 -4354.03 -4354.47 -4351.70 -4354.15 -4353.05 -4345.01 -4337.64 -4334.88 -4332.72 -4334.92 -4334.98
-4741.58 -4741.53 -4743.82 -4753.00 -4753.48 -4766.08 -4764.74 -4775.37 -4774.38 -4782.09 -4785.87 -4791.39 -4798.95 -4804.75 -4808.99 -4813.40 -4824.21 -4831.54 -4834.19 -4843.04 -4828.99 -4810.54 -4796.95 -4776.13 -4756.89 -4747.90 -4736.33 -4691.04 -4674.44 -4595.48 -4622.94 -4487.97 -4279.65 -4245.81 -3906.32 -3992.73 -2729.38 -2417.23 -1829.10 -493.67 -436.51 -384.06 -362.28 -309.85 -300.72 -264.57 -222.84 -200.87 -135.95 -121.21 -84.01 -66.59 -51.20 -3.51 16.25 35.15 11.16 18.46 51.98 50.45 69.81 65.64 69.71 86.22 100.97 100.16 102.28 102.28 94.53 97.40 85.18 76.65 66.48 51.24 47.30 41.00 36.70 31.20 19.44 14.98 16.55 15.75 7.75 -5.96 -16.52 -24.31 -39.60 -68.46 -101.02 -185.46 -235.26 -301.55 -432.57 -525.66 -764.29 -1038.55 -3316.48 -2966.36 -3191.98 -2929.66 -2850.39 -2789.50 -1462.67 -143.79 -105.45 -12.87 3.55 6.24 19.44 19.13 20.26 17.91 8.06 -13.26 -871.47 -2220.40 -2909.49 -3330.96 -3703.23 -3929.27 -4136.94 -4238.36 -4280.12 -4298.55 -4310.62 -4326.92 -4338.75 -4344.27 -4354.14 -4363.78 -4369.22 -4364.67 -4366.35 -4366.57 -4362.10 -4356.21 -4349.02 -4346.29 -4344.58 -4342.43 -4342.49
-4761.03 -4763.82 -4768.40 -4771.45 -4778.17 -4780.74 -4786.17 -4790.56 -4797.00 -4801.69 -4805.37 -4811.42 -4815.14 -4817.55 -4826.48 -4837.23 -4842.77 -4845.91 -4860.30 -4861.12 -4856.93 -4834.29 -4822.82 -4813.17 -4791.29 -4775.40 -4764.85 -4734.44 -4710.22 -4770.44 -4814.38 -4814.23 -4809.41 -4732.52 -4747.81 -4742.37 -4292.06 -3436.89 -3000.89 -1729.09 -662.78 -463.27 -393.68 -375.94 -344.29 -340.60 -318.64 -281.25 -209.46 -178.44 -205.87 -169.17 -171.11 -98.19 -51.10 -14.91 -28.50 -21.55 -3.99 20.15 18.55 19.10 40.02 45.19 50.41 54.80 68.96 71.65 67.09 73.64 58.84 44.58 38.83 40.50 27.98 25.31 22.51 21.52 14.09 2.80 10.23 5.93 -0.60 -7.52 -26.30 -59.51 -70.00 -108.52 -169.25 -245.65 -268.88 -302.17 -366.59 -480.86 -701.51 -1019.36 -2310.00 -1790.55 -1127.29 -1426.39 -615.52 -17.65 -12.73 15.31 56.72 48.54 37.09 26.24 20.08 18.74 13.72 12.97 7.25 -21.53 -1165.45 -2142.22 -2880.61 -3398.94 -3775.07 -4022.01 -4149.05 -4243.91 -4294.00 -4311.49 -4325.83 -4335.66 -4351.74 -4365.84 -4368.52 -4375.99 -4380.85 -4383.69 -4383.73 -4384.39 -4374.09 -4368.54 -4363.30 -4352.77 -4350.53 -4350.12 -4350.17
-4783.45 -4783.40 -4798.18 -4794.64 -4808.07 -4806.76 -4816.05 -4816.74 -4822.24 -4825.12 -4834.97 -4841.00 -4845.17 -4851.59 -4856.80 -4859.35 -4872.23 -4874.79 -4882.68 -4882.93 -4874.07 -4859.86 -4843.70 -4834.80 -4808.55 -4798.50 -4791.38 -4785.66 -4776.78 -4792.33 -4813.48 -4818.91 -4822.22 -4818.10 -4832.37 -4834.23 -4773.93 -4250.11 -2988.11 -2296.32 -1662.45 -1277.47 -766.57 -434.64 -459.84 -383.21 -408.50 -400.44 -328.59 -292.98 -253.64 -252.13 -206.82 -151.11 -95.87 -83.83 -52.37 -44.52 -31.15 -15.76 -23.40 -10.84 3.78 6.92 18.42 29.57 48.54 35.61 34.96 34.53 41.24 21.37 26.81 18.59 11.00 8.14 10.31 3.51 -3.68 -20.18 -27.19 -13.07 -21.36 -38.16 -49.97 -79.89 -112.60 -134.78 -180.50 -233.30 -265.57 -282.96 -296.97 -400.71 -524.80 -928.36 -1476.44 -308.16 -5.06 41.79 84.51 72.02 93.78 96.25 91.08 75.31 50.01 31.03 17.58 12.29 7.46 7.21 2.73 -41.87 -816.18 -2333.58 -3115.66 -3586.42 -3828.70 -3979.52 -4151.30 -4220.46 -4308.65 -4326.48 -4340.30 -4362.29 -4364.44 -4378.08 -4382.16 -4386.69 -4397.59 -4400.92 -4394.60 -4391.82 -4391.75 -4380.92 -4375.10 -4364.09 -4360.10 -4357.14 -4357.20
-4809.18 -4812.78 -4820.95 -4827.85 -4832.99 -4836.92 -4835.93 -4845.79 -4849.78 -4854.24 -4866.77 -4863.47 -4874.47 -4878.01 -4890.99 -4888.52 -4889.49 -4893.34 -4906.69 -4907.43 -4898.84 -4891.99 -4877.42 -4871.06 -4860.45 -4841.40 -4831.18 -4821.77 -4824.97 -4832.00 -4837.51 -4838.56 -4833.28 -4831.36 -4829.63 -4838.00 -4802.65 -4362.21 -4068.25 -3111.07 -2297.70 -1988.23 -1367.56 -513.11 -489.94 -475.66 -489.05 -445.56 -408.10 -350.54 -306.76 -322.13 -246.25 -177.80 -180.22 -152.52 -167.39 -124.27 -107.82 -55.71 -34.96 -30.97 -31.46 -21.78 -17.00 -6.88 -3.07 -4.91 1.65 9.99 4.55 6.03 0.98 -0.55 -11.03 -19.90 -38.83 -17.18 -29.93 -28.72 -49.71 -56.72 -65.20 -81.51 -81.46 -114.93 -136.81 -157.19 -172.83 -217.82 -231.44 -252.68 -275.65 -320.82 -320.14 -296.79 -260.79 -53.48 41.39 104.44 166.11 129.61 149.34 138.03 107.89 89.10 54.39 32.18 11.52 2.38 -15.74 -19.28 -53.24 -570.90 -1748.92 -2656.13 -3250.15 -3636.98 -3893.31 -4046.46 -4105.62 -4203.82 -4290.98 -4334.86 -4361.43 -4373.86 -4380.14 -4387.99 -4399.68 -4407.01 -4410.33 -4412.95 -4411.79 -4407.75 -4401.71 -4393.16 -4385.21 -4374.96 -4368.40 -4362.61 -4362.67
-4838.28 -4842.40 -4847.32 -4855.69 -4860.74 -4871.43 -4877.41 -4882.25 -4887.36 -4891.01 -4891.03 -4899.17 -4898.26 -4912.95 -4908.47 -4907.49 -4910.45 -4918.30 -4921.22 -4920.76 -4915.49 -4915.29 -4903.63 -4896.74 -4895.26 -4887.93 -4873.29 -4869.39 -4852.21 -4862.96 -4864.46 -4860.57 -4862.28 -4854.52 -4857.96 -4844.29 -4816.57 -4559.21 -4309.21 -3955.56 -3277.79 -3202.81 -2224.16 -1407.26 -838.92 -570.97 -654.44 -625.25 -574.73 -451.99 -388.35 -380.00 -315.30 -302.76 -269.17 -260.09 -278.62 -232.67 -143.45 -97.55 -82.04 -71.89 -91.64 -70.96 -53.40 -63.44 -40.85 -45.47 -37.85 -22.38 -21.67 -33.12 -29.25 -39.40 -51.33 -54.63 -79.24 -61.60 -55.13 -65.40 -96.67 -103.45 -102.61 -106.00 -107.09 -116.48 -124.05 -135.04 -167.53 -190.73 -200.16 -181.59 -168.99 -185.67 -164.77 -113.52 -47.39 64.80 135.54 162.88 272.12 245.08 218.49 187.04 138.80 87.13 50.84 33.12 -5.12 -17.74 -80.41 -148.36 -244.33 -1461.61 -2044.63 -2780.33 -3052.66 -3539.94 -3784.88 -3958.14 -4095.12 -4224.94 -4281.63 -4353.16 -4374.29 -4387.69 -4396.87 -4408.52 -4415.77 -4417.96 -4428.08 -4428.09 -4431.49 -4425.71 -4411.90 -4402.10 -4392.11 -4380.19 -4377.01 -4365.89 -4365.95
-4870.70 -4870.66 -4883.60 -4880.05 -4885.33 -4889.77 -4908.09 -4915.03 -4924.84 -4925.18 -4928.26 -4936.24 -4953.67 -4944.71 -4944.22 -4933.46 -4932.98 -4935.97 -4949.03 -4944.48 -4948.68 -4947.00 -4941.92 -4936.00 -4923.91 -4920.38 -4914.86 -4913.41 -4891.17 -4897.60 -4884.51 -4889.50 -4878.50 -4881.30 -4870.72 -4866.94 -4868.33 -4847.81 -4712.70 -4560.69 -4507.65 -3868.29 -3727.72 -3393.72 -1995.31 -1524.08 -1174.81 -1084.29 -697.90 -635.38 -459.62 -471.98 -433.13 -361.33 -348.32 -305.41 -354.28 -281.41 -244.18 -183.11 -154.33 -114.81 -125.21 -121.05 -137.33 -129.43 -106.41 -99.92 -91.64 -72.30 -73.67 -70.92 -95.38 -89.49 -93.44 -91.45 -113.60 -111.00 -108.89 -110.28 -113.69 -117.14 -116.04 -111.00 -105.94 -97.57 -107.98 -122.63 -153.24 -147.09 -162.07 -127.07 -120.17 -70.42 -58.35 2.08 49.91 145.61 246.58 329.91 393.20 309.90 225.79 172.99 127.88 93.76 59.92 18.73 -14.86 -101.17 -475.60 -985.89 -1288.15 -1934.06 -2232.20 -2744.92 -3158.05 -3524.15 -3877.93 -3986.53 -4132.14 -4261.57 -4311.80 -4353.05 -4381.06 -4406.10 -4411.02 -4421.99 -4426.54 -4438.18 -4440.40 -4440.57 -4442.06 -4437.26 -4424.88 -4408.62 -4400.55 -4384.45 -4380.83 -4366.06 -4366.13
-4906.14 -4906.11 -4910.66 -4917.66 -4931.39 -4942.79 -4945.85 -4953.80 -4946.77 -4953.27 -4967.87 -4983.38 -4970.93 -4961.55 -4961.21 -4959.49 -4959.82 -4967.12 -4967.65 -4975.35 -4982.80 -4984.15 -4974.73 -4963.12 -4967.71 -4951.00 -4955.64 -4948.25 -4937.85 -4926.11 -4918.57 -4912.56 -4922.86 -4919.39 -4917.63 -4909.90 -4906.03 -4881.25 -4835.07 -4816.57 -4669.66 -4583.07 -4454.54 -4108.42 -3526.09 -2558.90 -1893.77 -1636.66 -1039.46 -771.55 -592.66 -535.19 -500.47 -488.13 -492.65 -421.42 -408.28 -361.07 -310.51 -292.16 -208.00 -210.58 -223.70 -213.18 -184.04 -185.03 -166.69 -146.81 -150.16 -133.28 -129.78 -130.53 -123.64 -118.86 -124.69 -148.68 -141.63 -138.30 -137.72 -129.28 -128.06 -119.75 -109.93 -90.97 -93.58 -69.55 -77.78 -93.25 -106.68 -101.00 -107.28 -95.32 -86.45 -29.30 32.92 53.40 103.85 335.04 351.21 428.62 444.05 246.68 189.17 167.20 132.63 79.36 49.63 34.75 1.87 -116.49 -393.86 -1015.22 -1597.13 -1975.81 -2230.44 -2732.81 -3274.78 -3567.19 -3897.22 -4032.87 -4150.58 -4269.08 -4325.22 -4361.43 -4398.11 -4420.39 -4431.51 -4440.34 -4448.37 -4450.49 -4454.89 -4452.92 -4452.26 -4448.13 -4429.20 -4420.20 -4406.31 -4392.02 -4380.10 -4365.09 -4362.12
-4944.08 -4944.05 -4962.40 -4980.30 -4979.20 -4976.33 -4992.51 -4997.05 -4992.78 -5002.31 -5006.53 -5005.64 -5005.46 -5008.90 -5007.90 -5002.88 -5005.92 -5001.11 -5009.03 -5003.68 -5008.12 -5009.90 -5005.18 -5002.76 -4993.26 -4988.56 -5002.23 -5005.56 -4991.68 -4981.33 -4970.95 -4968.51 -4966.12 -4970.09 -4963.35 -4945.25 -4945.96 -4932.34 -4924.63 -4924.64 -4901.22 -4887.10 -4838.70 -4609.11 -4470.42 -3497.37 -2940.35 -2258.96 -1532.12 -1064.47 -719.53 -624.43 -708.34 -546.28 -544.85 -512.54 -457.75 -441.48 -410.74 -357.41 -338.87 -299.18 -292.09 -264.99 -221.67 -202.24 -191.01 -175.23 -164.85 -162.52 -150.83 -158.66 -150.13 -152.96 -152.67 -149.51 -146.79 -145.97 -143.52 -138.33 -128.86 -106.85 -87.87 -65.07 -56.71 -49.81 -35.96 -53.51 -42.80 -38.05 -34.98 -27.65 13.94 49.39 73.37 117.78 217.59 406.79 501.16 413.57 274.44 164.94 136.52 114.24 102.03 75.50 49.77 11.43 -38.34 -167.93 -631.72 -1164.28 -1759.61 -2170.00 -2532.10 -2999.81 -3345.56 -3697.20 -3854.72 -4063.79 -4177.03 -4256.42 -4331.66 -4392.66 -4416.25 -4430.65 -4448.21 -4453.72 -4461.83 -4465.07 -4467.87 -4465.20 -4458.02 -4452.19 -4436.83 -4423.04 -4401.37 -4391.48 -4378.07 -4353.08 -4353.15
-4983.92 -4989.68 -4996.94 -5008.68 -5015.82 -5027.02 -5037.85 -5034.00 -5042.33 -5042.71 -5070.20 -5066.43 -5054.04 -5040.00 -5035.76 -5031.87 -5035.71 -5031.03 -5033.71 -5046.15 -5051.33 -5059.17 -5050.12 -5050.51 -5031.06 -5035.33 -5041.09 -5039.56 -5027.81 -5020.36 -5004.18 -5013.00 -5005.37 -5004.88 -5015.51 -4994.58 -4992.95 -4983.66 -4966.78 -4957.93 -4954.11 -4952.80 -4903.36 -4797.98 -4603.17 -4390.69 -3622.81 -3256.58 -2469.81 -1954.12 -1546.27 -1525.32 -1392.12 -1049.97 -810.58 -773.14 -609.81 -642.59 -505.06 -485.03 -457.94 -414.22 -357.75 -275.18 -232.00 -210.48 -193.66 -173.69 -166.35 -161.96 -160.41 -159.42 -158.17 -154.64 -153.62 -151.34 -148.16 -148.24 -144.27 -136.99 -119.90 -97.60 -70.15 -40.84 -27.87 -12.40 -14.39 -14.50 -2.35 -4.29 28.76 48.74 77.04 82.40 108.39 271.16 375.62 494.06 523.20 324.65 190.64 132.52 95.38 55.25 64.95 45.95 6.49 -37.97 -302.90 -332.35 -1080.03 -1717.88 -2135.73 -2434.55 -2737.27 -3247.85 -3620.03 -3839.13 -3898.32 -4083.35 -4234.42 -4299.67 -4360.52 -4396.10 -4426.08 -4446.66 -4456.95 -4465.96 -4473.20 -4475.40 -4475.42 -4472.77 -4466.35 -4448.17 -4435.83 -4419.51 -4396.63 -4380.39 -4365.37 -4339.17 -4339.25
-5025.24 -5032.72 -5042.83 -5048.58 -5061.58 -5072.49 -5079.93 -5084.87 -5099.31 -5099.51 -5108.18 -5108.31 -5100.75 -5092.98 -5078.37 -5088.19 -5085.39 -5075.30 -5077.87 -5092.10 -5079.01 -5098.04 -5077.39 -5082.64 -5095.08 -5090.97 -5085.82 -5078.87 -5086.07 -5076.43 -5086.96 -5072.60 -5070.68 -5056.37 -5040.36 -5031.50 -5022.97 -5017.87 -5018.12 -5005.68 -4992.75 -4983.96 -4960.82 -4923.90 -4926.28 -4564.04 -4673.04 -4502.48 -3949.23 -3350.23 -2914.45 -2632.36 -2187.96 -2140.42 -1203.73 -1428.08 -909.58 -1089.38 -593.19 -609.76 -620.17 -513.05 -400.53 -305.19 -233.63 -220.21 -192.25 -178.87 -166.39 -161.84 -159.34 -158.95 -158.59 -156.55 -156.62 -150.65 -149.27 -145.19 -139.38 -125.38 -95.39 -71.42 -60.92 -21.75 -15.14 -8.27 11.28 44.30 63.13 77.45 68.30 75.78 102.85 199.91 216.48 334.02 463.21 466.32 305.37 174.58 153.19 104.20 48.19 30.21 28.85 24.63 -38.26 -242.71 -433.56 -736.70 -1231.95 -2187.79 -2494.52 -2723.97 -2992.44 -3420.37 -3726.56 -3847.50 -4021.03 -4143.84 -4248.71 -4321.55 -4380.36 -4404.30 -4435.02 -4452.59 -4468.20 -4476.45 -4478.52 -4480.46 -4476.68 -4474.23 -4462.17 -4445.64 -4427.08 -4408.33 -4388.83 -4360.84 -4347.99 -4317.32 -4321.06
-5075.15 -5075.06 -5081.49 -5103.99 -5102.65 -5115.80 -5127.15 -5134.89 -5137.54 -5139.79 -5145.65 -5162.14 -5159.33 -5143.87 -5141.12 -5126.56 -5116.56 -5119.27 -5109.36 -5117.23 -5133.15 -5131.09 -5151.25 -5134.43 -5136.75 -5131.34 -5131.30 -5139.49 -5127.09 -5118.64 -5122.65 -5097.78 -5106.39 -5112.77 -5094.70 -5083.92 -5083.72 -5062.15 -5041.12 -5044.99 -5034.46 -5028.67 -5005.34 -4974.72 -4871.92 -4709.29 -4792.21 -4772.41 -4597.69 -4598.68 -4454.10 -4102.98 -3849.41 -4131.00 -3662.26 -3108.64 -2279.65 -1527.49 -1346.47 -965.01 -716.79 -623.37 -425.14 -326.42 -258.12 -232.17 -207.05 -183.99 -165.15 -161.89 -158.54 -158.49 -158.55 -158.36 -154.90 -147.12 -128.19 -129.38 -109.71 -87.74 -69.35 -50.67 -33.62 -18.28 -9.09 49.61 66.00 81.51 98.69 105.69 119.02 125.05 171.10 280.30 309.85 481.70 624.28 456.63 222.90 122.83 83.01 28.05 -23.35 -24.14 -53.75 -33.27 -67.66 -440.10 -1263.60 -1777.41 -2056.76 -2445.72 -2738.81 -3180.64 -3283.86 -3523.67 -3758.14 -3867.38 -4028.79 -4148.61 -4228.34 -4339.68 -4400.59 -4424.88 -4449.07 -4468.04 -4474.24 -4482.18 -4482.99 -4481.75 -4474.69 -4467.31 -4458.55 -4439.41 -4414.11 -4398.16 -4369.25 -4346.59 -4323.67 -4301.44 -4294.43
-5117.62 -5117.52 -5134.11 -5145.46 -5135.92 -5172.53 -5180.58 -5176.58 -5194.11 -5188.95 -5195.53 -5213.57 -5200.99 -5183.95 -5181.30 -5174.28 -5175.71 -5165.22 -5153.68 -5175.91 -5175.28 -5184.98 -5189.45 -5192.44 -5192.03 -5181.46 -5181.11 -5178.91 -5178.57 -5174.59 -5167.35 -5168.80 -5166.56 -5156.20 -5139.23 -5133.91 -5117.05 -5119.12 -5102.16 -5080.54 -5077.32 -5054.77 -5023.28 -4967.43 -4927.66 -4850.85 -4840.75 -4781.53 -4734.22 -4695.01 -4632.42 -4628.53 -4595.49 -4528.31 -4510.03 -4316.79 -3565.74 -3431.54 -2590.81 -1902.65 -1206.76 -725.54 -561.25 -363.40 -281.90 -243.40 -205.63 -177.92 -163.71 -159.15 -157.61 -150.03 -151.34 -153.82 -142.16 -123.71 -111.52 -94.18 -85.64 -71.23 -53.72 -29.47 -17.54 -11.52 39.21 68.13 95.94 101.78 106.85 220.10 237.55 278.33 420.44 700.05 505.66 602.52 629.83 416.42 218.37 119.35 44.19 -91.60 -151.09 -242.39 -456.84 -379.04 -862.79 -1288.45 -1606.78 -2133.24 -2466.09 -2887.41 -3084.15 -3320.35 -3509.44 -3624.05 -3928.28 -4014.58 -4135.35 -4216.14 -4313.18 -4353.85 -4409.95 -4443.41 -4460.96 -4472.18 -4480.23 -4482.87 -4482.16 -4479.87 -4468.28 -4458.98 -4443.09 -4423.71 -4394.20 -4373.56 -4352.28 -4316.46 -4300.75 -4271.44 -4268.33
-5159.70 -5159.60 -5182.71 -5174.87 -5193.83 -5211.42 -5220.09 -5226.34 -5228.81 -5239.02 -5251.17 -5266.41 -5245.77 -5232.67 -5222.52 -5216.24 -5205.95 -5205.02 -5216.27 -5213.36 -5214.30 -5221.35 -5236.45 -5225.41 -5229.64 -5227.13 -5229.43 -5226.76 -5218.54 -5224.92 -5212.59 -5213.16 -5221.25 -5213.92 -5200.12 -5182.83 -5170.69 -5159.11 -5135.46 -5122.28 -5105.24 -5086.90 -5046.62 -5000.45 -4940.23 -4894.11 -4841.84 -4795.43 -4720.69 -4686.36 -4639.08 -4622.61 -4609.51 -4593.11 -4598.61 -4557.67 -4518.38 -4257.85 -3896.52 -3227.73 -1866.84 -1457.67 -676.30 -442.86 -327.18 -248.22 -202.61 -180.67 -160.47 -157.55 -134.16 -137.18 -128.77 -114.90 -82.98 -96.97 -85.59 -83.76 -68.37 -48.22 -35.66 -23.53 15.80 54.76 83.58 90.06 102.91 301.42 380.30 685.61 825.41 853.71 1087.28 1575.38 1131.66 979.04 776.23 590.34 217.79 85.95 2.54 -236.42 -441.93 -624.85 -1211.22 -990.43 -1433.44 -1661.16 -1899.42 -2246.98 -2602.60 -3194.38 -3224.35 -3513.00 -3686.69 -3814.49 -3985.66 -4131.81 -4174.83 -4306.70 -4375.47 -4397.65 -4432.24 -4453.05 -4466.63 -4479.90 -4481.84 -4480.54 -4473.72 -4468.97 -4452.69 -4442.81 -4428.35 -4410.91 -4377.05 -4349.73 -4325.45 -4293.90 -4272.33 -4249.46 -4240.53
-5200.30 -5198.33 -5211.47 -5223.85 -5226.93 -5239.10 -5250.21 -5268.58 -5270.56 -5277.86 -5284.36 -5295.40 -5294.51 -5283.92 -5270.72 -5265.82 -5260.94 -5258.78 -5249.17 -5244.16 -5263.53 -5272.64 -5280.10 -5269.62 -5261.87 -5276.41 -5277.11 -5269.43 -5264.71 -5258.28 -5261.37 -5245.50 -5253.62 -5244.21 -5234.58 -5219.64 -5210.98 -5193.07 -5169.82 -5161.20 -5134.64 -5107.05 -5079.99 -5020.20 -4983.54 -4928.06 -4902.67 -4829.71 -4757.43 -4673.51 -4659.43 -4642.15 -4615.38 -4600.30 -4585.78 -4554.61 -4485.68 -4312.33 -4010.72 -3304.02 -2973.83 -2397.48 -1213.96 -513.74 -413.00 -284.85 -196.36 -176.40 -162.59 -128.83 -83.29 -41.74 -44.32 -53.09 -41.49 -52.92 -60.33 -57.71 -35.91 -28.88 1.76 11.45 71.42 89.87 105.97 179.61 328.24 674.77 1134.56 1386.11 1685.10 1917.78 1640.56 1653.40 1043.90 1012.44 911.35 648.87 301.29 41.67 -220.16 -355.83 -873.60 -1356.31 -2161.65 -1889.23 -1812.15 -2186.43 -2515.73 -2636.32 -3160.13 -3461.24 -3582.31 -3777.39 -3810.84 -3945.12 -4056.66 -4159.89 -4239.07 -4301.13 -4397.12 -4417.65 -4437.19 -4453.82 -4470.78 -4477.58 -4475.94 -4472.53 -4464.15 -4454.45 -4440.12 -4425.62 -4403.36 -4384.46 -4354.34 -4327.08 -4291.32 -4268.20 -4251.19 -4212.15 -4212.19
-5238.10 -5236.76 -5249.36 -5266.86 -5276.48 -5282.66 -5300.09 -5306.26 -5311.74 -5317.70 -5314.88 -5329.32 -5333.87 -5317.24 -5306.87 -5306.77 -5292.80 -5288.23 -5289.11 -5288.45 -5297.86 -5295.83 -5317.12 -5307.75 -5315.27 -5319.51 -5308.07 -5305.81 -5308.92 -5297.27 -5296.63 -5298.00 -5286.31 -5285.23 -5266.81 -5260.12 -5249.29 -5229.96 -5204.99 -5180.67 -5157.77 -5142.05 -5111.20 -5072.53 -5039.51 -4996.60 -4923.60 -4882.11 -4813.80 -4752.55 -4721.09 -4677.44 -4635.49 -4600.52 -4566.42 -4495.15 -4432.57 -4250.33 -3755.68 -3417.14 -3071.75 -2217.80 -1143.43 -780.68 -525.10 -322.15 -239.87 -207.43 -159.11 -93.01 -36.43 35.37 39.87 13.10 1.07 -30.75 -22.55 -24.01 14.14 21.57 64.47 68.35 168.23 183.37 154.00 256.60 793.81 1140.59 1873.45 2122.62 2029.25 1706.99 1270.62 717.24 840.20 760.41 712.97 255.06 25.24 -709.14 -563.02 -863.97 -1881.42 -2692.90 -2550.35 -2450.75 -2543.52 -2652.07 -3005.51 -3178.24 -3471.71 -3700.87 -3824.99 -3869.76 -3990.32 -4094.08 -4172.43 -4271.70 -4316.58 -4346.11 -4406.07 -4432.87 -4444.02 -4459.23 -4468.55 -4472.75 -4470.26 -4461.77 -4452.68 -4437.67 -4421.97 -4400.33 -4384.29 -4353.17 -4326.65 -4296.97 -4260.41 -4235.77 -4212.66 -4184.49 -4184.54
-5272.19 -5271.75 -5284.23 -5297.13 -5302.23 -5323.43 -5325.71 -5326.47 -5336.53 -5343.47 -5353.08 -5360.06 -5359.82 -5346.92 -5339.15 -5326.16 -5333.98 -5327.02 -5329.86 -5329.44 -5336.98 -5336.25 -5340.52 -5337.04 -5338.88 -5342.25 -5340.95 -5341.71 -5338.54 -5325.58 -5322.59 -5314.39 -5313.02 -5308.83 -5296.64 -5278.61 -5269.25 -5246.33 -5236.13 -5222.45 -5176.31 -5152.82 -5137.62 -5099.50 -5065.58 -4984.52 -4912.19 -4897.60 -4887.52 -4809.78 -4751.72 -4690.03 -4652.73 -4560.15 -4510.60 -4436.62 -4324.22 -4130.68 -3673.92 -3405.32 -3005.34 -2456.58 -1944.52 -1344.59 -686.63 -387.90 -330.98 -278.77 -161.11 -35.37 47.05 71.39 97.87 102.37 84.98 47.94 26.80 29.52 70.45 72.48 106.65 441.31 553.29 414.77 664.64 934.09 1193.79 1242.79 1545.13 1475.19 1326.73 835.38 822.25 474.89 321.55 411.37 267.07 51.91 -977.69 -2608.45 -2589.50 -3598.51 -2698.82 -3018.00 -2827.93 -2955.09 -3126.21 -3109.24 -3485.06 -3498.85 -3675.58 -3898.49 -3990.31 -4007.09 -4053.28 -4138.29 -4219.76 -4300.35 -4338.79 -4383.63 -4418.84 -4435.97 -4449.93 -4459.25 -4459.13 -4463.55 -4457.63 -4446.22 -4432.70 -4420.47 -4395.84 -4382.19 -4358.51 -4329.89 -4303.66 -4267.31 -4238.63 -4213.88 -4186.77 -4158.78 -4158.82
-5301.82 -5301.74 -5318.52 -5325.53 -5331.55 -5344.15 -5343.37 -5346.99 -5360.02 -5361.81 -5365.44 -5371.97 -5376.41 -5377.72 -5372.28 -5356.45 -5361.69 -5355.71 -5356.24 -5354.29 -5354.81 -5359.02 -5361.36 -5374.04 -5363.64 -5365.66 -5363.33 -5359.90 -5356.26 -5347.46 -5340.62 -5335.89 -5331.81 -5319.41 -5313.14 -5301.42 -5289.27 -5275.05 -5260.68 -5237.01 -5210.87 -5164.76 -5143.60 -5117.94 -5077.98 -5000.87 -4905.72 -4889.52 -4899.30 -4836.29 -4491.32 -4395.98 -4338.49 -4466.07 -4322.09 -4412.04 -4366.17 -4163.68 -3938.49 -3498.01 -3144.32 -2345.04 -2188.32 -1635.69 -769.53 -575.92 -498.04 -259.73 -88.32 51.33 75.49 100.57 128.60 129.93 221.91 150.05 132.16 185.99 340.67 404.83 644.94 1278.79 1481.79 1382.96 1010.01 804.87 740.63 808.93 915.01 531.74 712.57 769.14 515.72 260.90 185.50 -19.31 -239.40 -634.38 -863.38 -3489.78 -4216.71 -3937.24 -3466.16 -3419.11 -3336.23 -3465.50 -3484.93 -3585.21 -3714.90 -3821.10 -3887.63 -3925.76 -4052.00 -4118.16 -4169.44 -4207.55 -4295.96 -4354.25 -4382.56 -4406.36 -4434.67 -4445.50 -4448.81 -4455.06 -4452.41 -4450.70 -4436.22 -4434.83 -4410.70 -4400.15 -4380.55 -4358.17 -4338.77 -4302.86 -4277.90 -4246.96 -4225.63 -4191.37 -4159.15 -4136.24 -4136.29
-5326.69 -5326.61 -5338.98 -5345.26 -5350.08 -5356.05 -5364.19 -5365.47 -5373.58 -5377.40 -5379.69 -5385.31 -5393.13 -5393.10 -5379.57 -5378.08 -5381.91 -5373.12 -5369.02 -5370.05 -5371.83 -5375.80 -5381.12 -5384.12 -5379.56 -5378.74 -5374.06 -5369.69 -5366.47 -5355.87 -5348.88 -5342.92 -5342.04 -5333.33 -5323.05 -5309.14 -5300.43 -5282.64 -5276.29 -5253.10 -5244.10 -5177.84 -5132.33 -5105.67 -5103.18 -5056.38 -4972.50 -4871.50 -4779.98 -4474.06 -3872.96 -3202.45 -2936.25 -3328.62 -3789.91 -4222.63 -4305.45 -4178.23 -4029.71 -3629.17 -3356.86 -2530.15 -1761.14 -1310.22 -984.91 -839.15 -652.40 -270.57 17.78 79.25 116.41 223.54 502.21 600.51 565.60 625.74 503.23 762.41 1085.19 1077.68 1274.45 1448.42 1536.26 1196.01 457.60 506.82 490.68 613.13 615.50 324.75 529.22 604.68 379.23 120.75 -41.05 -350.46 -406.47 -1728.98 -2643.64 -3470.01 -4014.07 -3869.22 -3803.59 -3821.19 -3684.32 -3681.66 -3792.21 -3888.83 -3929.38 -4029.34 -4072.44 -4079.05 -4107.15 -4212.06 -4254.99 -4289.39 -4357.88 -4380.11 -4409.94 -4430.44 -4444.96 -4449.44 -4448.81 -4448.44 -4441.62 -4436.55 -4425.70 -4411.60 -4391.43 -4380.31 -4344.66 -4336.45 -4314.33 -4287.57 -4255.95 -4228.56 -4199.43 -4168.55 -4148.07 -4124.05 -4117.87
-5347.01 -5346.93 -5357.95 -5362.76 -5368.42 -5371.31 -5374.87 -5376.47 -5382.78 -5385.36 -5388.45 -5390.93 -5397.29 -5396.36 -5396.29 -5394.32 -5387.28 -5390.20 -5386.98 -5383.84 -5385.13 -5386.23 -5390.03 -5392.09 -5387.95 -5384.71 -5382.90 -5375.10 -5367.54 -5361.45 -5354.12 -5348.46 -5345.63 -5336.56 -5325.56 -5315.91 -5305.85 -5296.33 -5269.07 -5256.12 -5236.48 -5189.90 -5167.93 -5105.19 -5061.49 -5032.69 -5001.54 -4987.33 -4757.43 -3648.92 -2648.89 -2056.99 -1972.67 -2156.68 -2753.44 -3445.96 -3994.66 -4152.85 -4112.45 -3912.57 -3598.17 -2609.97 -2118.39 -1611.13 -961.57 -936.36 -627.02 -157.09 74.48 137.28 202.78 471.24 1079.27 1473.54 1445.91 1757.04 2081.04 1912.57 2035.02 1756.77 1516.60 1326.50 1205.30 419.41 309.73 261.67 287.42 514.97 511.47 229.99 391.85 449.04 236.62 -347.29 -632.89 -1172.53 -1232.60 -1888.08 -3575.38 -4456.30 -4085.21 -4012.00 -3953.53 -4029.03 -3982.96 -3937.89 -3982.14 -4052.07 -4100.12 -4149.11 -4166.80 -4194.47 -4246.02 -4288.03 -4343.74 -4360.21 -4403.19 -4413.12 -4428.90 -4440.18 -4446.09 -4447.91 -4445.28 -4435.88 -4426.14 -4417.66 -4405.65 -4388.72 -4379.73 -4352.31 -4337.95 -4318.89 -4296.95 -4273.16 -4242.83 -4209.59 -4188.94 -4146.31 -4130.06 -4103.90 -4103.96
-5362.68 -5362.46 -5367.65 -5372.02 -5375.03 -5377.39 -5380.94 -5383.39 -5386.02 -5388.28 -5391.68 -5395.04 -5399.21 -5403.41 -5406.46 -5409.16 -5402.71 -5398.00 -5399.87 -5395.88 -5397.68 -5396.67 -5399.42 -5396.56 -5395.02 -5391.59 -5383.03 -5376.81 -5367.72 -5360.40 -5353.78 -5345.66 -5342.21 -5335.21 -5328.15 -5321.06 -5307.77 -5295.67 -5273.10 -5256.09 -5227.47 -5198.81 -5173.29 -5178.75 -5189.02 -5045.16 -4959.50 -5005.63 -4241.11 -3219.47 -2109.00 -1677.51 -1576.60 -1614.97 -1943.72 -2927.30 -3436.76 -3565.07 -3276.18 -2625.19 -2356.76 -2144.75 -1925.45 -1213.19 -845.93 -779.52 -545.67 -172.49 104.57 170.98 342.32 765.29 1265.63 1676.25 1660.23 1709.52 1858.10 1665.26 1640.27 1398.18 816.94 703.38 292.69 291.53 220.92 192.95 291.94 411.37 387.88 109.67 156.91 -168.84 -447.25 -900.09 -1122.17 -2516.76 -2846.77 -3451.67 -3999.98 -4339.35 -4155.52 -4102.68 -4127.37 -4153.15 -4111.05 -4122.84 -4139.50 -4184.58 -4186.10 -4220.17 -4264.60 -4295.64 -4338.83 -4356.42 -4379.75 -4382.30 -4413.96 -4433.84 -4436.86 -4439.79 -4439.31 -4439.64 -4433.84 -4425.03 -4415.01 -4410.24 -4391.87 -4376.59 -4359.57 -4345.12 -4323.21 -4296.64 -4276.86 -4257.77 -4226.68 -4199.53 -4179.44 -4143.21 -4122.06 -4095.02 -4095.08
-5373.90 -5373.83 -5377.91 -5379.63 -5380.94 -5382.42 -5383.37 -5385.17 -5387.17 -5390.34 -5392.17 -5395.65 -5399.84 -5404.20 -5408.41 -5414.13 -5416.34 -5411.84 -5406.63 -5405.84 -5403.61 -5406.33 -5403.04 -5398.91 -5395.07 -5392.98 -5382.57 -5374.42 -5359.61 -5356.06 -5350.67 -5342.88 -5336.47 -5331.45 -5323.77 -5316.28 -5302.80 -5291.47 -5273.16 -5245.58 -5223.08 -5198.45 -5178.35 -5166.24 -5083.57 -5079.39 -4895.51 -4529.77 -3580.04 -2397.23 -1836.06 -1444.52 -1351.68 -1452.16 -1835.98 -1866.90 -2269.48 -2162.98 -1905.03 -1852.38 -1320.41 -1193.07 -885.81 -704.28 -647.86 -602.52 -417.84 -122.10 113.21 136.61 158.69 387.94 476.33 444.56 767.15 709.10 683.23 671.54 755.53 223.14 303.48 171.38 126.13 140.41 211.63 162.55 280.50 263.52 183.96 152.87 -23.74 -929.20 -1459.06 -2775.82 -3538.83 -4149.02 -4480.11 -4579.32 -4347.33 -4222.60 -4209.97 -4185.64 -4206.47 -4215.26 -4175.70 -4227.96 -4246.64 -4259.60 -4261.60 -4289.47 -4312.28 -4348.27 -4374.32 -4392.19 -4403.89 -4418.97 -4436.97 -4444.48 -4443.22 -4439.79 -4435.32 -4430.46 -4425.00 -4410.75 -4399.08 -4384.68 -4374.80 -4362.39 -4345.94 -4325.04 -4303.31 -4289.86 -4266.88 -4241.72 -4221.90 -4195.13 -4173.67 -4140.25 -4116.11 -4091.27 -4091.33
-5381.31 -5381.24 -5382.76 -5382.82 -5383.16 -5383.30 -5383.69 -5384.95 -5386.16 -5390.06 -5392.63 -5395.60 -5399.75 -5404.07 -5408.98 -5412.34 -5417.74 -5417.09 -5414.36 -5411.89 -5409.47 -5412.11 -5407.83 -5403.03 -5395.11 -5389.14 -5381.81 -5370.53 -5358.61 -5350.27 -5343.95 -5339.12 -5329.93 -5325.08 -5318.91 -5307.08 -5300.67 -5278.70 -5263.70 -5235.19 -5219.65 -5221.37 -5197.33 -5014.22 -4870.39 -4745.37 -4229.56 -3416.08 -2934.53 -2159.29 -1541.75 -1367.04 -1299.64 -1312.81 -1340.70 -1480.97 -1443.69 -1430.70 -1263.41 -982.85 -914.08 -748.31 -706.60 -620.83 -561.09 -368.23 -321.83 -161.88 33.26 77.62 100.37 119.05 130.55 156.63 324.06 189.21 200.67 190.51 140.94 124.34 125.98 138.35 98.68 105.15 149.57 88.59 122.18 33.15 -849.49 -573.13 -786.18 -1014.22 -2022.00 -3518.82 -4160.95 -4216.53 -4256.71 -4296.29 -4298.18 -4263.14 -4260.31 -4283.98 -4286.32 -4277.27 -4295.86 -4288.36 -4325.02 -4326.88 -4342.19 -4344.76 -4353.93 -4376.11 -4406.85 -4428.69 -4441.16 -4438.48 -4450.66 -4451.94 -4450.02 -4441.21 -4432.06 -4427.79 -4411.92 -4403.80 -4391.84 -4374.41 -4358.58 -4346.95 -4323.71 -4314.99 -4303.35 -4283.49 -4263.32 -4247.36 -4216.23 -4193.35 -4168.57 -4143.75 -4121.03 -4096.27 -4092.38
-5385.54 -5385.47 -5384.88 -5384.09 -5383.13 -5382.26 -5382.11 -5383.33 -5384.59 -5387.25 -5392.73 -5394.50 -5399.68 -5404.15 -5409.92 -5413.66 -5420.55 -5422.38 -5423.43 -5421.36 -5418.52 -5418.23 -5411.34 -5404.70 -5399.26 -5387.98 -5378.18 -5366.98 -5357.65 -5348.98 -5335.88 -5327.28 -5324.53 -5320.36 -5311.78 -5302.53 -5291.17 -5273.64 -5262.39 -5237.55 -5231.10 -5237.65 -5212.66 -4998.65 -4450.17 -3839.32 -3310.10 -2754.90 -1913.96 -1725.11 -1407.39 -1343.60 -1271.00 -1245.40 -1268.13 -1283.31 -1245.78 -1198.17 -1053.37 -849.63 -788.25 -733.17 -466.94 -452.30 -161.21 -66.47 -107.84 -95.77 -142.66 -12.29 25.90 58.02 104.65 101.89 107.31 100.12 140.31 106.50 112.42 90.57 73.12 31.21 57.48 -9.19 -33.09 -115.79 -507.19 -2788.71 -3477.14 -3240.44 -1420.24 -1717.48 -2612.86 -3286.20 -3917.89 -4186.79 -4218.05 -4236.58 -4270.77 -4297.69 -4314.77 -4314.70 -4327.59 -4334.44 -4339.12 -4341.59 -4367.15 -4388.70 -4378.21 -4381.81 -4406.02 -4426.15 -4421.62 -4440.86 -4454.42 -4453.14 -4455.37 -4456.42 -4448.97 -4438.03 -4428.00 -4426.05 -4413.91 -4392.92 -4380.53 -4369.47 -4348.80 -4339.44 -4322.70 -4310.85 -4301.22 -4273.84 -4263.55 -4246.04 -4214.58 -4189.39 -4174.24 -4147.28 -4122.07 -4097.36 -4097.43
-5387.13 -5387.06 -5385.12 -5383.32 -5381.03 -5380.47 -5379.83 -5380.80 -5382.50 -5385.20 -5389.61 -5395.73 -5400.05 -5407.07 -5412.01 -5417.47 -5424.80 -5428.03 -5430.75 -5428.47 -5428.03 -5426.46 -5419.77 -5410.84 -5404.03 -5394.37 -5381.80 -5366.04 -5355.96 -5345.13 -5333.30 -5323.11 -5317.46 -5315.75 -5301.80 -5293.11 -5285.36 -5254.60 -5246.68 -5228.42 -5228.25 -5141.51 -4988.26 -4039.06 -3664.86 -3059.54 -2418.59 -1735.18 -1544.59 -1472.35 -1327.44 -1278.12 -1251.42 -1249.81 -1374.82 -1318.17 -1144.35 -1043.56 -936.00 -834.91 -798.30 -738.41 -384.02 -89.98 116.12 323.61 243.86 211.95 -398.92 -269.04 -101.41 3.12 38.59 60.70 52.67 57.45 -433.36 -233.48 76.76 -82.40 -377.97 -592.91 -934.03 -1367.91 -1211.85 -1103.82 -2071.55 -3643.79 -4145.65 -4032.02 -3273.83 -3307.63 -4051.06 -4243.07 -4210.90 -4239.65 -4282.60 -4283.78 -4311.94 -4331.00 -4348.32 -4349.00 -4353.33 -4366.86 -4372.38 -4389.91 -4398.99 -4415.72 -4417.85 -4432.12 -4434.12 -4452.81 -4457.57 -4471.50 -4470.21 -4464.04 -4465.39 -4459.52 -4450.50 -4438.46 -4427.39 -4416.38 -4404.57 -4394.41 -4379.63 -4363.78 -4348.99 -4335.91 -4324.13 -4310.26 -4297.58 -4278.71 -4267.28 -4249.75 -4224.00 -4197.35 -4174.74 -4158.33 -4134.17 -4108.13 -4105.52
-5386.67 -5386.29 -5383.06 -5380.00 -5378.04 -5376.35 -5376.37 -5377.07 -5379.61 -5384.67 -5390.60 -5395.16 -5402.27 -5408.30 -5416.52 -5422.14 -5428.72 -5435.02 -5440.24 -5442.16 -5439.53 -5433.62 -5425.62 -5419.26 -5407.45 -5399.35 -5384.79 -5367.99 -5351.22 -5343.62 -5331.74 -5321.60 -5315.64 -5310.17 -5297.17 -5286.69 -5278.47 -5263.88 -5255.94 -5247.04 -5245.64 -5162.12 -4607.07 -4099.79 -2794.68 -1969.29 -1578.81 -1496.74 -1394.49 -1321.51 -1254.66 -1246.52 -1338.58 -1646.18 -1644.57 -1667.49 -1248.82 -985.62 -940.84 -929.08 -841.56 -744.71 -227.47 112.57 574.74 1086.40 1266.18 809.12 -245.67 -792.00 -328.07 -248.94 -523.44 -334.37 -842.76 -895.88 -1404.22 -1310.94 -1322.30 -1205.23 -2309.57 -3426.72 -2602.15 -3018.22 -2814.97 -2524.87 -3466.67 -4435.94 -4213.64 -4227.75 -4420.08 -4797.77 -4695.66 -4480.07 -4367.51 -4306.57 -4313.98 -4328.60 -4351.55 -4355.28 -4370.78 -4379.79 -4391.30 -4389.86 -4390.12 -4410.94 -4423.53 -4447.20 -4452.56 -4454.15 -4475.21 -4475.08 -4473.83 -4481.72 -4482.78 -4477.16 -4474.42 -4462.87 -4455.18 -4444.61 -4429.74 -4421.09 -4406.49 -4390.77 -4375.68 -4361.14 -4351.84 -4336.51 -4327.78 -4315.37 -4304.84 -4291.97 -4276.31 -4254.23 -4232.43 -4218.02 -4185.78 -4163.62 -4136.87 -4115.69 -4115.77
-5384.67 -5384.18 -5381.24 -5377.24 -5375.59 -5372.61 -5372.29 -5374.37 -5376.50 -5382.01 -5387.92 -5395.16 -5403.37 -5410.58 -5419.67 -5428.20 -5437.63 -5442.08 -5448.41 -5453.51 -5449.97 -5444.47 -5439.26 -5425.43 -5416.02 -5401.49 -5386.21 -5371.87 -5357.40 -5342.50 -5333.45 -5323.10 -5315.25 -5307.39 -5295.00 -5285.78 -5276.09 -5264.42 -5257.69 -5250.52 -5220.25 -5030.27 -4188.68 -3322.71 -2049.57 -1640.85 -1513.92 -1441.27 -1409.41 -1369.57 -1214.97 -1372.25 -1871.55 -2529.54 -2566.04 -2329.92 -1489.79 -1248.11 -1009.80 -1227.62 -1405.09 -1578.45 -511.85 134.63 504.39 1182.71 1241.74 606.78 -740.35 -1453.99 -1693.97 -1668.61 -1899.27 -2245.00 -2075.69 -2080.03 -2553.44 -3055.75 -3666.93 -3431.57 -4325.06 -4333.77 -4526.82 -4401.85 -4757.67 -4564.71 -4514.03 -4442.98 -4317.71 -4392.56 -4486.81 -4455.13 -4457.81 -4387.02 -4349.45 -4328.83 -4334.24 -4346.12 -4361.04 -4377.79 -4397.05 -4409.23 -4413.22 -4418.05 -4440.00 -4435.85 -4465.30 -4484.17 -4496.67 -4495.81 -4511.13 -4506.77 -4501.81 -4501.80 -4488.64 -4487.79 -4483.17 -4471.60 -4463.12 -4445.12 -4435.18 -4425.92 -4405.33 -4395.72 -4381.39 -4366.88 -4351.21 -4342.92 -4337.58 -4321.73 -4315.52 -4301.14 -4290.98 -4269.15 -4238.51 -4229.43 -4212.51 -4176.73 -4158.74 -4127.33 -4127.40
-5381.47 -5381.40 -5376.25 -5374.17 -5370.66 -5369.44 -5369.60 -5370.88 -5374.33 -5379.38 -5387.26 -5396.50 -5403.24 -5412.91 -5425.46 -5430.60 -5444.51 -5450.53 -5460.85 -5460.46 -5459.65 -5453.85 -5448.37 -5437.18 -5426.21 -5407.02 -5393.68 -5376.67 -5364.97 -5350.93 -5334.29 -5324.99 -5315.91 -5307.42 -5297.88 -5280.99 -5271.70 -5258.14 -5246.75 -5258.57 -5220.30 -4692.22 -3978.42 -2501.26 -1717.07 -1480.10 -1603.92 -1696.44 -1684.23 -1442.70 -1320.39 -2085.38 -2479.74 -3332.57 -3646.49 -2984.84 -2103.36 -1831.18 -1770.60 -2222.47 -2206.00 -2578.13 -1963.91 -680.26 428.79 577.38 358.74 -584.53 -1822.75 -2070.73 -1959.71 -2116.50 -2500.24 -2742.22 -3066.21 -3612.42 -3891.17 -4071.15 -4280.75 -4435.98 -4493.67 -4460.15 -4406.65 -4431.22 -4411.68 -4384.22 -4384.49 -4356.43 -4340.56 -4350.47 -4379.10 -4390.82 -4386.29 -4372.85 -4359.08 -4347.94 -4358.66 -4366.99 -4372.50 -4390.22 -4404.86 -4439.52 -4447.92 -4450.02 -4465.69 -4466.73 -4482.74 -4507.38 -4521.44 -4528.32 -4526.46 -4531.11 -4541.24 -4523.25 -4506.31 -4500.88 -4491.18 -4478.72 -4469.85 -4455.58 -4440.11 -4429.59 -4412.40 -4397.81 -4385.05 -4370.72 -4366.47 -4349.04 -4342.92 -4335.50 -4326.24 -4317.04 -4300.85 -4275.75 -4256.36 -4242.40 -4220.08 -4189.96 -4165.93 -4139.14 -4139.22
-5377.50 -5377.44 -5371.71 -5368.83 -5366.25 -5364.87 -5365.61 -5368.24 -5372.34 -5376.15 -5386.71 -5393.67 -5406.03 -5415.81 -5427.20 -5439.85 -5449.56 -5457.74 -5468.63 -5468.86 -5472.10 -5467.97 -5455.35 -5450.96 -5433.62 -5417.52 -5403.63 -5392.92 -5374.94 -5364.16 -5341.38 -5331.66 -5320.54 -5307.46 -5295.71 -5284.47 -5258.07 -5246.97 -5247.84 -5261.13 -5050.71 -4533.22 -3629.75 -2169.98 -1769.43 -1758.23 -1937.52 -2485.31 -2349.55 -1924.60 -1660.80 -2056.49 -3012.44 -4120.01 -4379.14 -3810.75 -3247.94 -3193.52 -3134.28 -3568.67 -3755.25 -3985.02 -3511.84 -3091.87 -2572.84 -1948.72 -2006.51 -2964.76 -2780.43 -3215.37 -2891.70 -2680.50 -3084.61 -3562.37 -3924.54 -4224.08 -4261.92 -4334.62 -4424.69 -4446.28 -4474.44 -4430.23 -4397.03 -4373.64 -4375.05 -4354.54 -4346.88 -4365.04 -4365.50 -4374.18 -4374.66 -4379.22 -4378.08 -4380.81 -4372.77 -4370.55 -4375.79 -4385.57 -4393.68 -4397.00 -4420.93 -4450.82 -4465.52 -4484.63 -4497.04 -4513.16 -4520.96 -4548.19 -4564.69 -4559.04 -4551.84 -4558.70 -4556.38 -4538.86 -4525.39 -4517.65 -4498.95 -4487.84 -4475.27 -4462.47 -4454.87 -4440.13 -4424.58 -4416.00 -4398.34 -4388.52 -4382.31 -4364.02 -4356.19 -4345.33 -4337.32 -4325.11 -4311.95 -4296.44 -4272.69 -4248.68 -4238.22 -4204.71 -4183.34 -4149.84 -4149.92
-5373.05 -5372.98 -5368.11 -5365.17 -5362.32 -5361.48 -5361.81 -5363.91 -5369.10 -5374.98 -5387.81 -5392.26 -5400.59 -5419.51 -5427.54 -5443.79 -5451.41 -5463.46 -5473.14 -5476.60 -5475.65 -5474.44 -5469.00 -5458.36 -5446.09 -5435.14 -5415.05 -5405.07 -5388.16 -5364.27 -5355.28 -5339.99 -5329.70 -5320.67 -5301.01 -5288.28 -5246.00 -5234.07 -5236.08 -5247.00 -5082.07 -4457.46 -3126.48 -2452.42 -2323.94 -2847.44 -3503.79 -3581.17 -3633.42 -2997.69 -2132.16 -2448.85 -3092.99 -4342.06 -4691.79 -4489.95 -4370.07 -3910.31 -4095.53 -4473.85 -4399.63 -4576.59 -4439.88 -4250.84 -4095.44 -4143.55 -4501.18 -4177.60 -4177.47 -3877.66 -3895.43 -3983.43 -4035.58 -4135.16 -4289.30 -4397.59 -4443.70 -4461.85 -4451.31 -4473.41 -4479.80 -4462.04 -4428.03 -4411.39 -4392.77 -4361.06 -4381.67 -4385.92 -4396.96 -4396.96 -4391.95 -4391.02 -4395.13 -4401.77 -4396.01 -4389.94 -4405.70 -4417.47 -4415.99 -4428.03 -4448.42 -4468.33 -4484.99 -4516.32 -4531.72 -4536.55 -4548.42 -4563.37 -4575.36 -4571.83 -4572.14 -4579.27 -4576.30 -4559.71 -4530.26 -4517.40 -4507.24 -4498.91 -4483.31 -4473.49 -4466.33 -4448.05 -4433.46 -4419.44 -4412.48 -4398.92 -4389.13 -4373.37 -4362.49 -4356.34 -4344.88 -4339.76 -4320.71 -4299.71 -4285.67 -4265.64 -4239.71 -4220.48 -4193.69 -4158.60 -4158.67
-5368.34 -5368.04 -5363.18 -5359.78 -5356.87 -5355.25 -5356.18 -5358.79 -5361.75 -5370.29 -5376.91 -5389.13 -5401.86 -5414.26 -5426.20 -5439.84 -5454.92 -5463.97 -5475.01 -5479.86 -5481.53 -5478.85 -5473.02 -5468.75 -5457.56 -5441.66 -5421.94 -5415.80 -5398.25 -5380.26 -5366.47 -5350.90 -5338.04 -5321.43 -5302.11 -5278.39 -5260.34 -5259.29 -5226.93 -5201.55 -5176.27 -4046.38 -3435.94 -2782.00 -3159.06 -3583.02 -4135.37 -4579.27 -4392.80 -4186.75 -2966.52 -2921.88 -3434.80 -4150.70 -4642.74 -4735.40 -4716.10 -4692.32 -4636.73 -4749.42 -4828.86 -4774.80 -4748.18 -4703.27 -4682.93 -4631.63 -4647.04 -4615.72 -4567.44 -4467.51 -4451.89 -4362.25 -4379.81 -4476.78 -4484.56 -4482.65 -4503.00 -4493.27 -4483.77 -4485.71 -4489.61 -4475.43 -4467.10 -4431.20 -4423.49 -4397.70 -4397.73 -4416.21 -4413.40 -4402.54 -4398.61 -4405.02 -4410.85 -4419.40 -4412.78 -4408.28 -4415.31 -4433.74 -4443.12 -4450.15 -4458.14 -4483.42 -4505.42 -4526.84 -4556.76 -4570.17 -4579.67 -4585.60 -4596.36 -4599.20 -4593.83 -4587.76 -4580.68 -4565.36 -4543.13 -4524.82 -4516.31 -4500.57 -4487.95 -4477.44 -4477.50 -4460.23 -4446.01 -4429.90 -4421.37 -4405.44 -4392.04 -4382.33 -4377.15 -4364.61 -4359.13 -4351.70 -4338.18 -4312.19 -4294.79 -4277.06 -4249.46 -4227.18 -4196.64 -4164.59 -4164.67
-5363.43 -5363.36 -5359.08 -5352.65 -5351.64 -5351.13 -5352.19 -5354.53 -5358.31 -5365.46 -5374.76 -5380.83 -5394.62 -5406.80 -5422.61 -5433.52 -5446.75 -5459.65 -5469.17 -5476.87 -5475.29 -5476.68 -5476.61 -5471.64 -5466.94 -5447.56 -5441.26 -5426.86 -5414.57 -5394.74 -5376.24 -5366.37 -5346.43 -5325.50 -5304.84 -5269.68 -5252.41 -5247.54 -5213.00 -5146.96 -5022.11 -4606.06 -3920.17 -3695.97 -3878.61 -4480.01 -4878.99 -5035.00 -4941.53 -4441.89 -3966.61 -3395.84 -3728.76 -3881.11 -4564.00 -4802.90 -4876.11 -4887.00 -4875.61 -4875.69 -4854.07 -4825.54 -4802.35 -4751.91 -4739.13 -4725.91 -4698.13 -4674.17 -4658.55 -4629.71 -4604.61 -4572.34 -4556.96 -4558.74 -4533.31 -4539.13 -4526.32 -4531.40 -4500.77 -4498.73 -4498.93 -4502.69 -4498.11 -4468.44 -4449.65 -4430.18 -4418.88 -4419.09 -4417.79 -4413.91 -4409.28 -4417.12 -4428.94 -4437.21 -4429.39 -4424.92 -4433.92 -4450.66 -4460.27 -4464.60 -4469.90 -4492.39 -4517.07 -4540.90 -4571.97 -4589.60 -4602.28 -4611.95 -4614.31 -4611.33 -4610.91 -4590.64 -4582.68 -4566.84 -4553.02 -4533.50 -4522.09 -4506.17 -4488.52 -4476.65 -4472.66 -4462.76 -4451.45 -4436.17 -4423.59 -4411.08 -4400.50 -4394.43 -4385.47 -4375.23 -4368.52 -4352.20 -4340.98 -4321.38 -4300.01 -4286.95 -4259.12 -4230.26 -4198.55 -4168.17 -4168.25
-5358.35 -5358.28 -5353.33 -5349.70 -5346.06 -5345.02 -5343.44 -5347.49 -5350.85 -5357.25 -5365.95 -5375.60 -5387.90 -5395.12 -5413.00 -5423.73 -5439.62 -5451.74 -5463.22 -5470.66 -5470.30 -5472.21 -5473.47 -5471.05 -5464.71 -5459.48 -5451.01 -5441.60 -5422.35 -5409.94 -5390.67 -5373.93 -5353.36 -5328.83 -5312.21 -5269.63 -5261.80 -5273.44 -5234.26 -5188.99 -5163.63 -4945.16 -4838.16 -4684.89 -4719.75 -5070.69 -5112.89 -5137.03 -5079.49 -4887.15 -4619.35 -4278.42 -4136.35 -4151.67 -4521.64 -4802.08 -4913.21 -4926.37 -4903.35 -4889.45 -4859.28 -4829.42 -4794.84 -4781.83 -4754.26 -4741.90 -4724.85 -4707.86 -4682.81 -4667.74 -4647.74 -4637.24 -4627.85 -4589.42 -4581.25 -4570.91 -4557.52 -4547.35 -4527.86 -4529.66 -4531.60 -4530.17 -4529.29 -4496.71 -4469.96 -4455.01 -4436.21 -4428.21 -4438.39 -4437.60 -4423.17 -4434.06 -4449.19 -4446.67 -4445.33 -4440.13 -4446.79 -4461.10 -4470.23 -4478.17 -4492.61 -4505.14 -4526.39 -4550.75 -4586.12 -4597.86 -4624.85 -4635.01 -4636.90 -4619.90 -4615.35 -4598.38 -4573.90 -4569.95 -4552.27 -4535.92 -4523.92 -4505.58 -4491.73 -4480.02 -4472.61 -4464.55 -4455.72 -4441.39 -4425.91 -4413.81 -4405.07 -4405.75 -4393.35 -4382.49 -4370.56 -4360.05 -4341.38 -4318.59 -4308.03 -4287.63 -4266.99 -4231.95 -4206.64 -4172.42 -4168.72
-5353.16 -5353.08 -5348.99 -5341.97 -5342.27 -5340.67 -5339.72 -5341.27 -5344.58 -5347.51 -5355.45 -5362.78 -5375.87 -5381.88 -5399.05 -5408.20 -5428.91 -5437.74 -5442.68 -5458.42 -5467.26 -5466.35 -5465.82 -5464.42 -5464.28 -5463.09 -5456.11 -5448.21 -5429.20 -5418.89 -5401.25 -5377.92 -5357.67 -5334.13 -5311.42 -5279.11 -5297.28 -5282.35 -5266.60 -5236.08 -5223.66 -5195.44 -5091.13 -5034.61 -5050.41 -5179.23 -5166.36 -5143.08 -5096.44 -5011.23 -4861.55 -4689.56 -4541.23 -4537.09 -4767.08 -4849.33 -4923.77 -4923.34 -4910.58 -4886.32 -4860.33 -4836.00 -4807.88 -4788.67 -4766.73 -4750.41 -4743.01 -4717.25 -4700.17 -4703.16 -4691.19 -4663.75 -4650.38 -4609.24 -4596.21 -4588.01 -4584.47 -4563.51 -4555.12 -4557.52 -4564.80 -4547.05 -4533.59 -4521.29 -4523.84 -4496.78 -4453.33 -4446.96 -4456.20 -4459.13 -4440.06 -4447.27 -4455.64 -4456.37 -4454.52 -4453.07 -4452.92 -4462.75 -4469.90 -4486.80 -4499.86 -4517.68 -4531.04 -4567.02 -4587.47 -4611.28 -4631.91 -4640.95 -4638.85 -4627.50 -4614.32 -4592.15 -4575.57 -4562.47 -4547.65 -4537.98 -4515.67 -4500.53 -4488.08 -4480.52 -4474.52 -4463.51 -4454.25 -4439.99 -4431.89 -4417.42 -4408.58 -4403.82 -4397.36 -4390.70 -4379.29 -4357.25 -4346.07 -4328.18 -4307.13 -4292.37 -4268.26 -4231.69 -4196.89 -4165.74 -4165.82
-5347.89 -5347.82 -5342.40 -5339.66 -5336.09 -5333.56 -5332.28 -5333.63 -5334.71 -5338.86 -5348.84 -5352.29 -5365.14 -5375.91 -5381.68 -5395.48 -5410.96 -5421.08 -5437.42 -5439.55 -5450.29 -5452.85 -5454.83 -5457.79 -5460.60 -5462.37 -5458.99 -5452.69 -5443.87 -5421.96 -5407.95 -5380.83 -5359.01 -5337.33 -5310.89 -5272.68 -5276.80 -5264.86 -5245.06 -5249.86 -5233.91 -5236.87 -5261.67 -5229.49 -5216.36 -5193.49 -5170.93 -5134.47 -5103.47 -5057.63 -4990.51 -4923.59 -4875.91 -4906.53 -4891.21 -4922.53 -4929.40 -4918.94 -4905.42 -4885.12 -4861.72 -4835.22 -4818.99 -4791.62 -4775.45 -4760.46 -4744.74 -4727.23 -4730.19 -4718.30 -4703.78 -4685.37 -4669.89 -4642.35 -4629.57 -4619.22 -4590.96 -4581.86 -4586.15 -4586.51 -4587.24 -4567.41 -4551.07 -4546.20 -4540.81 -4501.09 -4481.35 -4468.23 -4473.18 -4473.08 -4461.85 -4458.21 -4455.30 -4456.57 -4459.65 -4462.36 -4462.32 -4471.87 -4475.48 -4485.90 -4504.81 -4519.27 -4547.43 -4571.40 -4592.26 -4625.10 -4637.41 -4639.73 -4638.44 -4628.64 -4609.72 -4588.95 -4571.02 -4556.32 -4539.44 -4520.41 -4507.13 -4498.14 -4487.17 -4471.56 -4458.51 -4446.92 -4444.47 -4438.59 -4428.98 -4413.73 -4405.54 -4403.41 -4401.74 -4391.14 -4377.31 -4360.38 -4349.24 -4327.91 -4307.91 -4285.55 -4257.67 -4231.80 -4194.82 -4164.63 -4161.04
-5342.56 -5342.48 -5336.64 -5333.33 -5330.35 -5325.05 -5325.56 -5325.70 -5328.57 -5328.06 -5332.48 -5332.07 -5346.37 -5357.30 -5363.43 -5371.71 -5385.89 -5404.82 -5413.12 -5426.39 -5427.69 -5437.44 -5440.75 -5447.01 -5455.73 -5459.30 -5458.29 -5452.45 -5446.28 -5421.70 -5405.50 -5377.26 -5360.89 -5338.05 -5318.78 -5286.03 -5276.65 -5264.73 -5254.45 -5266.41 -5258.86 -5247.68 -5256.23 -5243.53 -5211.71 -5199.68 -5156.64 -5133.55 -5095.87 -5059.48 -5027.75 -5010.90 -4966.09 -4948.60 -4935.06 -4928.26 -4923.20 -4909.06 -4892.28 -4873.97 -4855.91 -4832.28 -4813.52 -4796.73 -4776.53 -4765.95 -4752.36 -4739.83 -4741.63 -4731.03 -4712.58 -4697.81 -4689.06 -4664.31 -4654.16 -4642.89 -4615.02 -4608.93 -4611.65 -4613.12 -4606.93 -4584.52 -4571.16 -4551.11 -4542.24 -4516.57 -4490.50 -4483.97 -4480.21 -4472.60 -4472.68 -4462.40 -4458.31 -4461.44 -4468.76 -4468.27 -4470.44 -4482.15 -4484.30 -4491.71 -4510.20 -4524.33 -4556.97 -4575.71 -4601.03 -4621.79 -4636.57 -4640.68 -4634.03 -4624.30 -4604.75 -4586.67 -4567.50 -4547.69 -4526.23 -4501.30 -4483.70 -4471.61 -4466.77 -4458.82 -4447.39 -4440.54 -4430.32 -4420.39 -4415.49 -4411.16 -4407.66 -4406.27 -4405.36 -4385.20 -4373.88 -4360.99 -4339.83 -4324.84 -4306.12 -4280.29 -4256.39 -4234.03 -4193.14 -4154.37 -4154.44
-5337.18 -5337.10 -5332.13 -5328.30 -5323.66 -5320.74 -5319.34 -5317.12 -5317.49 -5320.64 -5321.74 -5325.87 -5334.77 -5340.88 -5349.33 -5358.71 -5364.37 -5378.01 -5390.73 -5402.58 -5410.70 -5414.33 -5425.44 -5438.55 -5445.02 -5451.21 -5453.65 -5450.14 -5439.42 -5419.11 -5403.89 -5374.88 -5358.93 -5335.20 -5311.81 -5291.08 -5279.58 -5268.53 -5262.65 -5254.75 -5246.28 -5247.26 -5245.08 -5223.98 -5211.15 -5195.30 -5137.20 -5125.15 -5080.31 -5051.10 -5025.29 -4986.27 -4969.31 -4946.83 -4930.12 -4912.26 -4903.02 -4893.84 -4881.83 -4863.17 -4846.52 -4826.84 -4815.23 -4795.38 -4780.07 -4771.31 -4754.92 -4744.85 -4751.84 -4749.53 -4734.06 -4714.33 -4704.44 -4685.28 -4681.29 -4666.62 -4632.45 -4624.57 -4627.37 -4620.66 -4608.83 -4593.53 -4571.59 -4557.78 -4536.93 -4520.90 -4503.22 -4494.19 -4491.42 -4482.80 -4471.39 -4465.63 -4464.35 -4466.77 -4473.31 -4470.13 -4480.95 -4487.89 -4492.96 -4498.37 -4510.35 -4534.17 -4552.69 -4580.37 -4599.19 -4627.42 -4639.73 -4638.31 -4631.51 -4620.32 -4596.31 -4578.32 -4545.09 -4526.20 -4506.95 -4481.47 -4467.87 -4449.00 -4444.16 -4443.12 -4435.19 -4425.94 -4417.28 -4415.10 -4414.96 -4411.63 -4410.64 -4410.03 -4403.78 -4386.16 -4373.70 -4354.74 -4339.27 -4322.71 -4302.21 -4280.52 -4249.47 -4220.57 -4180.81 -4147.13 -4147.21
-5331.82 -5331.74 -5325.87 -5323.82 -5317.13 -5314.77 -5311.98 -5309.51 -5308.67 -5306.70 -5308.38 -5310.72 -5314.14 -5318.07 -5323.15 -5340.19 -5347.12 -5358.52 -5371.49 -5382.50 -5388.89 -5400.02 -5409.15 -5417.03 -5430.63 -5436.29 -5446.43 -5435.36 -5431.20 -5413.18 -5391.50 -5368.73 -5345.19 -5325.86 -5300.09 -5283.39 -5272.97 -5262.47 -5252.36 -5240.29 -5235.51 -5237.55 -5231.97 -5218.20 -5200.29 -5174.95 -5131.39 -5110.53 -5069.24 -5038.92 -4994.78 -4973.43 -4944.23 -4923.42 -4916.39 -4898.00 -4885.27 -4874.76 -4863.29 -4844.80 -4835.19 -4817.57 -4797.32 -4788.94 -4779.08 -4769.62 -4758.38 -4753.48 -4757.30 -4749.85 -4738.15 -4715.07 -4709.49 -4696.04 -4690.30 -4668.03 -4655.24 -4646.84 -4644.79 -4627.86 -4624.02 -4609.71 -4583.18 -4563.08 -4548.57 -4526.71 -4515.68 -4504.65 -4503.41 -4491.91 -4486.18 -4476.17 -4476.98 -4479.01 -4476.36 -4473.17 -4485.46 -4488.69 -4493.98 -4503.75 -4514.85 -4537.25 -4560.75 -4584.95 -4602.79 -4619.91 -4634.69 -4635.11 -4626.12 -4607.82 -4586.00 -4561.84 -4527.68 -4508.65 -4479.36 -4463.27 -4448.61 -4433.80 -4430.79 -4425.04 -4420.22 -4410.05 -4406.21 -4404.49 -4407.60 -4409.88 -4406.81 -4410.33 -4399.40 -4378.71 -4367.86 -4352.41 -4337.09 -4320.01 -4299.57 -4272.90 -4247.52 -4207.39 -4168.75 -4142.55 -4139.99
