-5767.09 -5766.31 -5769.13 -5769.12 -5769.34 -5765.09 -5764.45 -5775.64 -5762.09 -5762.19 -5753.31 -5761.02 -5775.64 -5781.20 -5788.14 -5808.28 -5815.32 -5815.75 -5798.81 -5745.19 -5674.46 -5527.32 -4766.99 -3799.52 -3723.34 -3281.33 -3462.97 -3515.48 -2940.09 -2775.15 -2693.93 -1204.14 -651.00 -111.45 -34.29 27.09 57.29 92.46 72.76 54.68 37.31 6.02 -28.16 -30.72 -32.35 -121.49 -312.43 -701.32 -1098.51 -1262.88 -595.67 -127.03 -170.85 -142.13 -1429.80 -1406.19 -1357.24 -1831.67 -2098.19 -2058.10 -2549.22 -2736.96 -2736.14 -2916.66 -2795.84 -2506.75 -2533.31 -2104.99 -2180.66 -2022.56 -1441.05 -182.23 -9.40 36.32 54.93 84.23 108.59 106.17 111.78 138.22 149.47 162.41 175.14 209.88 246.22 284.94 312.71 345.93 376.98 408.30 453.80 510.17 520.19 610.19 753.81 851.32 893.65 675.25 372.73 155.79 121.53 81.90 31.25 23.36 -11.73 -101.98 -193.66 -1776.47 -2895.41 -3888.69 -4413.33 -4637.05 -4357.15 -4208.72 -3686.35 -3187.02 -3310.86 -3379.76 -3372.25 -3435.44 -3566.60 -3772.08 -3864.90 -4096.68 -4264.90 -4304.62 -4317.76 -4315.43 -4309.63 -4302.72 -4301.56 -4287.03 -4274.29 -4262.82 -4249.53 -4237.02 -4235.77 -4225.26 -4218.60 -4220.10 -4220.15
-5780.86 -5779.77 -5781.78 -5785.68 -5782.96 -5785.84 -5790.14 -5791.02 -5792.45 -5785.15 -5789.32 -5797.81 -5797.81 -5807.55 -5814.43 -5817.80 -5826.34 -5829.92 -5832.83 -5816.72 -5797.65 -5699.30 -5318.50 -4991.88 -4850.20 -5064.81 -4914.29 -4413.03 -3707.31 -2918.24 -1924.19 -251.91 -144.09 -57.98 -7.36 12.40 48.31 168.88 156.00 75.69 44.45 31.54 20.14 11.98 14.93 16.91 8.94 19.80 5.26 -39.61 -46.05 -8.59 -96.85 -136.08 -189.47 -223.73 -394.41 -880.11 -934.29 -1785.95 -2210.99 -2246.24 -2548.57 -2494.74 -2496.01 -2469.29 -2208.23 -1621.29 -1150.62 -1041.22 -780.39 24.67 49.07 61.58 88.97 142.45 163.14 153.80 145.41 149.62 147.86 184.00 186.31 209.95 251.15 289.68 317.32 344.88 378.26 397.18 452.63 501.28 526.98 560.94 638.31 796.94 935.19 810.90 580.01 319.16 132.12 116.72 69.02 57.28 14.35 -63.75 -555.03 -1906.33 -3340.05 -3554.90 -3843.27 -4244.66 -4576.96 -4830.82 -4267.68 -4062.16 -4059.05 -3582.93 -3487.97 -3437.68 -3434.61 -3494.31 -3620.83 -3897.47 -4044.27 -4210.52 -4261.83 -4277.95 -4280.51 -4280.19 -4263.00 -4255.27 -4247.17 -4236.06 -4232.42 -4222.36 -4211.42 -4207.97 -4204.01 -4201.71 -4199.11
-5796.42 -5795.07 -5796.50 -5797.07 -5800.72 -5801.06 -5800.92 -5797.50 -5806.29 -5808.57 -5811.50 -5814.20 -5821.77 -5822.73 -5826.01 -5833.08 -5836.23 -5844.18 -5844.28 -5847.65 -5839.71 -5824.00 -5766.36 -5664.18 -5650.54 -5652.90 -5497.36 -5433.84 -5132.77 -2334.39 -884.44 -159.26 -53.29 -26.30 -2.25 19.51 58.83 99.85 179.20 135.77 129.28 81.24 60.83 38.01 66.89 51.29 42.34 43.27 27.85 14.47 13.30 7.71 -6.72 -88.77 -126.87 -165.67 -196.12 -212.99 -227.78 -645.31 -797.82 -1457.97 -1966.82 -2203.31 -2371.30 -1989.73 -1355.78 -749.79 -291.89 -208.10 -72.72 33.56 56.55 72.47 99.41 182.96 268.87 186.95 179.82 165.55 172.91 203.09 206.82 230.98 252.71 276.09 310.90 341.97 380.33 398.88 440.75 487.28 495.14 540.09 588.48 725.27 942.05 1013.94 711.01 568.39 181.25 159.12 114.36 78.14 55.30 -9.04 -229.03 -824.67 -2496.05 -3316.98 -3266.65 -3589.35 -4161.93 -4906.91 -4946.21 -4790.10 -4628.48 -4334.94 -3910.34 -3509.43 -3405.22 -3338.59 -3496.62 -3772.20 -4043.46 -4181.87 -4232.63 -4245.26 -4255.43 -4248.39 -4236.26 -4233.39 -4224.51 -4214.65 -4207.27 -4199.67 -4193.07 -4188.93 -4180.43 -4178.14 -4175.16
-5812.55 -5812.47 -5816.59 -5815.70 -5812.41 -5818.37 -5818.40 -5816.54 -5818.84 -5823.06 -5819.63 -5828.23 -5830.95 -5833.08 -5841.96 -5848.57 -5847.67 -5853.66 -5853.15 -5855.26 -5852.49 -5841.61 -5820.71 -5810.16 -5781.84 -5740.58 -5740.52 -5977.28 -6393.78 -3767.46 -680.28 -97.47 -32.09 -15.91 -1.35 21.58 69.94 111.87 183.09 192.95 168.26 78.68 87.01 86.72 89.04 78.62 66.08 55.99 53.65 46.23 44.87 31.44 4.02 -28.74 -67.26 -111.67 -119.04 -111.16 -127.60 -173.37 -196.58 -507.63 -893.12 -1321.73 -1502.38 -853.14 -618.70 -258.11 5.59 22.92 35.55 41.08 69.82 97.63 146.97 243.64 331.34 268.20 215.53 208.27 198.54 208.39 214.52 246.59 261.41 277.95 308.88 326.54 359.85 401.34 423.62 465.17 485.32 539.71 566.57 591.03 791.44 955.57 772.71 440.29 232.28 165.31 148.78 128.40 110.99 80.30 0.99 -423.32 -1668.79 -2716.93 -3578.31 -3892.04 -4273.27 -4738.23 -5061.49 -5045.79 -5027.70 -4940.63 -4484.72 -3872.28 -3516.51 -3313.74 -3496.51 -3776.78 -3967.30 -4151.00 -4173.20 -4197.00 -4191.46 -4203.05 -4203.97 -4198.01 -4195.41 -4186.11 -4184.60 -4174.86 -4164.71 -4160.42 -4150.23 -4149.58 -4149.63
-5828.34 -5827.04 -5828.10 -5830.19 -5835.47 -5829.83 -5836.63 -5832.74 -5832.12 -5834.20 -5840.26 -5844.23 -5849.48 -5851.06 -5854.55 -5856.46 -5863.79 -5862.67 -5863.24 -5864.43 -5863.66 -5858.74 -5846.17 -5825.85 -5797.39 -5787.46 -5850.17 -6174.62 -7147.67 -4121.69 -767.69 -89.95 -26.97 -5.75 16.22 32.53 68.08 104.25 172.41 262.84 225.95 151.00 116.36 121.40 172.91 181.04 171.74 94.07 87.68 73.42 70.15 64.69 40.62 13.23 -2.02 -40.29 -31.15 -54.24 -63.07 -103.68 -163.63 -188.65 -203.20 -551.98 -319.43 -304.33 -148.12 -8.74 11.00 28.24 39.54 43.38 61.92 112.15 182.78 270.90 380.37 337.80 269.76 237.88 244.04 226.79 248.52 253.64 268.09 286.26 308.22 334.10 362.05 394.64 427.11 453.37 480.14 533.61 558.49 578.22 621.23 675.40 814.18 653.13 718.99 395.16 210.38 147.82 140.48 82.24 51.00 3.65 -527.47 -1851.57 -3220.77 -2771.64 -3443.25 -4595.84 -5077.56 -5047.26 -5026.26 -5009.68 -4778.87 -4326.55 -3508.10 -3206.29 -3384.00 -3723.07 -3900.72 -4084.18 -4138.81 -4168.92 -4171.22 -4163.40 -4178.27 -4166.38 -4163.08 -4156.24 -4148.70 -4142.18 -4140.02 -4134.63 -4132.15 -4126.70 -4123.35
-5842.31 -5842.23 -5846.18 -5845.36 -5844.43 -5846.42 -5846.43 -5848.03 -5851.74 -5855.97 -5853.92 -5857.73 -5863.25 -5866.41 -5867.71 -5871.83 -5871.26 -5874.81 -5872.67 -5873.54 -5871.37 -5869.09 -5852.22 -5833.93 -5795.34 -5792.10 -6074.50 -6556.67 -5317.24 -2147.69 -417.50 -83.94 -23.85 8.22 33.80 65.64 85.01 101.80 157.40 283.77 276.46 242.72 214.92 173.33 243.68 237.93 267.58 131.70 111.09 115.98 80.24 75.08 65.62 47.16 18.21 2.97 -10.48 -11.73 -32.54 -74.63 -106.68 -101.76 -136.16 -140.44 -80.82 -17.62 -5.11 10.99 26.93 39.29 41.94 66.86 97.72 110.19 236.00 328.57 404.29 407.76 320.59 273.34 255.33 248.37 262.55 263.17 284.28 299.47 315.46 334.22 366.20 389.14 423.35 452.13 472.83 506.56 548.43 554.62 582.42 639.21 801.74 889.76 855.45 509.94 257.31 187.81 158.59 128.57 64.03 20.98 20.21 -38.58 -1004.60 -1377.02 -3038.73 -4442.32 -5104.22 -5041.76 -5014.69 -5001.83 -4888.72 -4187.67 -3506.39 -3063.27 -3199.19 -3439.49 -3821.92 -3963.82 -4095.73 -4134.60 -4130.84 -4148.10 -4132.04 -4141.99 -4137.45 -4137.52 -4120.92 -4122.63 -4105.22 -4107.45 -4099.62 -4097.08 -4097.13
-5854.64 -5854.56 -5858.22 -5860.61 -5863.16 -5863.30 -5866.81 -5866.78 -5870.32 -5867.91 -5873.80 -5877.15 -5878.30 -5882.57 -5884.13 -5885.38 -5885.58 -5886.01 -5888.12 -5886.58 -5883.97 -5874.46 -5856.96 -5826.18 -5805.31 -5841.24 -6244.96 -6766.69 -5734.67 -2650.11 -633.45 -58.86 9.01 29.18 60.83 71.94 98.44 142.99 165.09 265.81 321.67 340.54 304.69 313.79 391.21 476.94 395.11 233.81 173.98 150.27 82.36 83.55 75.18 56.12 25.11 19.54 8.67 -1.50 -11.22 -17.35 -26.81 -38.29 -28.55 -35.80 -28.48 23.22 28.35 30.43 40.24 46.65 63.15 80.63 109.75 130.32 201.44 260.37 441.06 451.21 366.38 282.83 270.22 265.64 270.03 276.62 299.01 305.01 328.10 347.48 364.55 385.96 428.84 446.02 460.42 503.21 505.85 507.63 549.01 574.96 645.20 851.52 931.70 824.00 556.71 272.46 155.27 143.84 112.51 84.66 27.49 -46.08 -246.20 -720.52 -2352.81 -3725.36 -5003.87 -5066.72 -5007.25 -4992.36 -4900.77 -4274.68 -3508.99 -2740.85 -2734.55 -3012.67 -3504.78 -3847.78 -4060.65 -4098.42 -4092.34 -4099.66 -4112.10 -4114.81 -4108.38 -4101.26 -4096.02 -4089.36 -4091.67 -4080.73 -4075.97 -4071.38 -4071.43
-5865.95 -5865.88 -5871.05 -5872.87 -5872.21 -5872.52 -5876.88 -5875.53 -5879.77 -5884.12 -5886.62 -5888.37 -5893.73 -5897.18 -5899.83 -5901.66 -5903.63 -5908.91 -5902.92 -5899.44 -5894.36 -5880.28 -5862.89 -5835.80 -5819.52 -5924.16 -6328.22 -6247.75 -5328.07 -432.88 -129.07 -9.42 21.26 44.96 81.52 101.59 116.57 160.04 181.30 212.80 274.17 317.47 369.20 442.01 567.69 533.82 516.48 298.52 254.27 167.09 104.26 91.54 88.13 83.42 59.69 44.56 30.34 13.07 9.24 13.81 -6.69 -8.75 -11.42 -11.63 7.71 29.27 38.60 44.36 49.56 61.32 66.19 86.71 105.99 143.31 187.64 244.53 356.50 393.21 337.17 287.81 283.35 278.11 281.48 294.94 304.97 318.20 337.36 349.94 372.24 386.40 425.83 453.08 472.63 500.79 504.17 508.64 523.84 563.94 633.75 834.68 1018.02 893.99 696.76 396.99 194.99 167.40 168.15 147.50 91.25 -28.05 -263.57 -959.31 -1605.07 -3712.85 -4441.72 -5048.10 -4988.17 -4978.16 -4889.62 -4540.33 -3583.02 -2575.59 -2677.38 -2956.87 -3309.95 -3578.37 -3897.22 -4024.83 -4043.39 -4075.12 -4096.05 -4090.98 -4087.83 -4085.02 -4078.53 -4067.81 -4066.53 -4059.49 -4048.44 -4047.20 -4047.25
-5874.60 -5874.55 -5878.54 -5881.76 -5884.56 -5885.73 -5886.61 -5892.18 -5893.65 -5893.71 -5897.94 -5902.97 -5905.96 -5906.28 -5910.37 -5912.59 -5910.96 -5915.07 -5915.82 -5915.21 -5906.46 -5891.15 -5882.33 -5865.83 -5879.22 -6246.06 -6384.21 -4184.04 -1590.50 -228.09 -53.90 -20.26 15.67 33.70 85.10 113.79 132.22 169.40 183.47 223.83 251.95 310.48 393.14 439.97 554.25 695.58 600.77 489.30 285.46 180.92 149.57 127.90 103.12 90.37 82.57 61.75 53.03 36.97 32.26 27.00 21.48 2.43 17.08 14.45 35.52 51.06 48.46 48.62 59.76 72.85 80.15 89.20 105.30 136.28 163.27 233.59 277.95 310.46 282.86 282.12 280.48 281.51 286.86 299.14 311.48 326.98 349.23 360.59 374.29 389.77 428.49 451.95 472.99 496.26 502.29 506.61 528.68 541.84 561.80 627.71 910.44 914.82 763.06 423.55 292.22 243.44 203.89 133.55 97.59 -25.73 -274.62 -912.24 -1750.89 -3549.38 -4518.44 -5026.35 -4977.35 -4968.20 -4950.64 -4557.53 -3256.54 -2426.82 -2347.85 -2748.98 -2911.33 -3436.38 -3632.38 -3917.65 -4003.31 -4032.04 -4057.35 -4067.17 -4069.42 -4055.32 -4055.66 -4048.37 -4040.74 -4034.05 -4032.93 -4027.64 -4025.05
-5880.57 -5880.50 -5886.47 -5887.14 -5892.98 -5895.09 -5901.83 -5901.82 -5905.32 -5908.37 -5912.48 -5914.27 -5920.75 -5925.40 -5926.58 -5928.20 -5932.23 -5930.23 -5931.33 -5925.51 -5923.09 -5909.12 -5898.69 -5900.28 -6066.40 -6418.96 -6625.44 -2771.87 -636.39 -189.26 -56.64 -9.64 29.40 47.78 67.42 103.20 117.94 165.38 198.56 229.42 288.44 316.27 344.80 407.66 497.54 695.79 677.45 473.79 321.71 235.45 190.35 162.49 129.92 109.08 101.55 76.46 69.20 60.67 50.01 40.50 43.73 37.02 55.18 56.65 52.03 60.10 67.51 79.51 70.34 79.02 91.71 98.24 115.34 136.92 175.95 213.32 240.08 258.32 264.68 273.39 278.12 279.72 286.77 300.27 318.31 328.41 343.92 357.66 383.58 402.38 430.65 456.14 477.28 490.59 499.05 502.12 505.80 529.87 551.07 544.28 777.94 852.23 861.03 612.11 372.87 279.04 212.87 164.07 107.21 -47.56 -191.48 -905.91 -2023.73 -3842.78 -4561.72 -4911.11 -4983.68 -4956.74 -4917.09 -4788.28 -3199.38 -2338.82 -2229.56 -2440.42 -2639.79 -3347.52 -3600.01 -3844.52 -3987.22 -3986.21 -4030.16 -4025.10 -4033.89 -4041.29 -4037.38 -4029.81 -4024.16 -4017.10 -4007.31 -4004.65 -4004.71
-5884.41 -5884.34 -5890.68 -5894.61 -5899.64 -5903.58 -5908.35 -5909.13 -5912.45 -5921.50 -5924.35 -5927.11 -5930.48 -5934.13 -5940.24 -5943.53 -5942.66 -5948.27 -5949.90 -5943.50 -5940.38 -5932.76 -5887.80 -5912.61 -6038.71 -4502.08 -2919.38 -977.04 -463.33 -78.23 -33.15 -5.99 24.93 55.97 85.98 107.75 121.29 156.03 246.40 268.12 296.99 348.29 437.73 413.43 459.73 579.29 581.06 532.03 328.80 292.10 242.25 190.87 161.71 128.82 126.68 95.77 77.43 72.12 77.24 66.99 60.30 59.31 83.09 78.75 73.50 73.89 84.83 89.94 87.77 90.10 103.33 117.85 125.13 146.91 163.29 187.34 221.06 242.01 254.42 257.98 272.06 279.96 287.84 299.44 321.16 342.35 348.94 372.06 393.75 413.86 440.25 466.24 469.52 484.91 493.17 489.86 495.50 502.65 524.23 530.44 596.80 789.33 684.59 491.57 289.74 259.77 223.32 137.40 75.74 1.37 -267.23 -771.37 -2157.48 -3312.12 -4658.74 -4872.90 -4976.92 -4936.45 -4888.59 -4238.06 -3355.29 -2277.90 -2065.77 -2269.48 -2719.50 -3088.51 -3623.67 -3737.10 -3817.32 -3932.39 -4009.62 -3995.97 -4016.33 -4018.53 -4012.00 -4011.37 -4004.50 -3996.15 -3991.86 -3986.03 -3986.08
-5886.54 -5886.47 -5894.13 -5898.52 -5905.81 -5908.99 -5913.12 -5917.91 -5923.17 -5926.76 -5930.50 -5936.19 -5942.44 -5944.37 -5952.18 -5955.22 -5962.33 -5968.31 -5959.83 -5946.90 -5932.60 -5892.03 -5798.20 -5616.51 -4909.12 -3793.44 -739.31 -412.60 -123.26 -26.52 -12.22 5.79 32.19 71.39 96.55 116.08 163.94 188.15 217.31 314.22 425.69 411.76 428.37 489.16 522.71 637.56 633.62 520.21 448.47 359.38 279.33 213.40 187.72 148.51 142.10 126.34 98.56 98.92 91.40 83.72 84.95 99.97 100.05 106.68 105.53 100.10 110.59 103.61 99.52 104.58 110.62 119.90 130.33 144.44 161.90 190.76 216.90 227.06 237.80 251.21 262.57 270.16 287.28 310.98 329.19 348.21 367.11 378.28 400.35 428.42 445.27 466.70 471.55 476.58 478.07 481.70 476.63 478.61 485.54 501.81 492.20 524.85 470.26 437.72 385.27 211.28 148.55 124.52 77.46 2.61 -201.81 -799.56 -2104.91 -3579.17 -4942.45 -4978.91 -4932.82 -4884.99 -4744.92 -4190.63 -3232.44 -2112.85 -1943.95 -2173.98 -2532.94 -3074.99 -3462.67 -3595.49 -3722.60 -3844.34 -3963.80 -3980.35 -3996.98 -4003.41 -3997.57 -3992.14 -3987.69 -3981.28 -3975.32 -3971.52 -3971.58
-5887.71 -5888.49 -5893.49 -5904.23 -5908.01 -5912.05 -5918.89 -5923.44 -5927.32 -5934.82 -5941.82 -5948.94 -5953.08 -5959.15 -5966.31 -5966.75 -5969.97 -5971.02 -5966.44 -5885.02 -5785.49 -5539.20 -4597.02 -3980.74 -3637.99 -2252.05 -863.01 -223.41 -145.68 -37.86 -9.30 19.84 57.62 82.09 102.04 143.07 172.74 219.35 284.67 293.44 400.55 517.34 563.78 581.45 631.46 679.79 652.50 613.61 514.38 350.79 270.23 236.08 209.30 182.55 162.82 148.45 131.18 119.06 117.15 103.81 91.74 122.98 127.29 133.04 133.28 120.87 128.53 127.86 117.57 122.16 112.01 119.52 127.70 143.74 155.84 182.67 196.68 210.21 227.18 241.67 260.71 265.47 278.26 312.10 328.95 346.33 384.30 400.85 417.96 429.11 456.94 466.18 474.89 478.47 485.98 485.31 480.10 478.80 480.60 482.02 487.08 648.54 769.34 692.01 527.12 297.77 176.04 120.29 66.38 12.86 -216.48 -516.20 -1846.04 -4222.31 -5034.38 -4936.41 -4828.27 -4756.30 -4610.98 -4114.92 -3186.60 -1982.39 -1930.60 -1954.00 -2405.60 -2854.19 -3092.77 -3426.99 -3779.65 -3852.34 -3903.26 -3944.32 -3974.78 -3986.97 -3985.16 -3981.95 -3975.41 -3972.26 -3967.64 -3962.65 -3962.72
-5888.91 -5888.84 -5896.53 -5904.28 -5908.90 -5918.95 -5921.42 -5928.87 -5936.40 -5944.45 -5948.56 -5955.04 -5962.29 -5968.01 -5973.97 -5964.97 -5961.88 -5947.48 -5773.25 -5691.59 -5231.43 -4779.18 -3843.71 -2618.43 -2434.46 -1704.66 -737.87 -261.55 -115.73 -27.87 10.15 49.40 65.87 103.17 137.47 150.63 168.94 200.00 256.45 358.06 479.53 549.26 651.33 659.50 658.51 573.45 576.44 555.57 363.67 344.89 283.94 258.40 217.16 196.85 185.66 165.58 146.31 145.53 150.50 164.99 181.32 170.86 152.10 155.78 153.18 141.71 141.91 138.04 135.52 132.83 132.16 129.70 127.46 138.53 159.63 171.63 194.91 208.62 224.71 249.71 255.43 268.59 291.45 306.10 330.54 358.25 383.09 405.28 420.69 436.16 461.52 476.49 486.68 493.95 495.17 502.34 505.78 500.18 504.66 515.77 561.43 806.03 851.48 631.53 394.73 226.56 174.67 126.77 83.12 -6.45 -251.22 -1380.86 -2841.41 -4677.94 -4867.93 -4851.18 -4660.48 -4608.50 -4484.52 -4057.24 -2795.11 -2095.92 -1755.60 -1888.65 -2032.67 -2712.93 -3119.39 -3298.75 -3642.28 -3816.40 -3881.19 -3920.48 -3962.95 -3973.46 -3976.16 -3974.22 -3969.64 -3967.54 -3963.06 -3958.96 -3959.03
-5891.04 -5890.97 -5898.59 -5905.33 -5912.34 -5921.75 -5927.42 -5934.71 -5940.94 -5949.77 -5955.77 -5962.78 -5970.69 -5970.04 -5955.23 -5928.76 -5805.21 -5674.76 -5259.04 -4623.18 -4011.82 -3798.14 -2955.05 -2367.05 -2020.57 -676.71 -261.63 -167.74 -54.94 -15.47 44.96 58.90 92.55 121.23 141.44 155.30 176.91 220.70 257.53 282.57 440.93 492.96 638.89 651.79 601.03 511.60 459.89 435.95 365.83 333.63 297.34 267.37 235.11 207.42 206.23 198.29 164.39 165.64 180.95 196.09 198.36 202.25 176.28 162.46 165.33 156.38 153.67 151.20 146.39 142.78 139.09 135.77 131.38 135.55 158.31 165.81 186.93 195.97 220.04 236.27 249.92 263.51 286.00 310.15 335.47 360.32 381.25 410.54 430.96 455.76 466.65 489.02 506.04 517.45 512.97 520.84 540.82 555.30 532.59 529.32 531.73 728.65 845.07 661.71 380.04 226.23 191.36 136.07 78.37 24.62 -285.73 -2112.62 -4556.88 -4639.83 -4684.46 -4698.75 -4610.76 -4478.91 -4338.47 -3969.66 -2672.41 -1908.49 -1707.90 -1931.34 -2088.02 -2532.60 -2931.71 -3160.37 -3574.18 -3818.19 -3873.89 -3891.46 -3949.75 -3970.61 -3972.35 -3969.76 -3968.01 -3965.06 -3962.94 -3959.46 -3959.53
-5895.03 -5895.55 -5901.75 -5910.95 -5919.69 -5927.62 -5933.99 -5943.29 -5947.66 -5956.53 -5963.22 -5962.16 -5950.50 -5921.76 -5883.19 -5634.98 -5335.94 -4651.05 -4075.22 -3539.57 -3400.17 -2409.54 -2373.15 -2004.10 -869.72 -275.38 -192.69 -106.47 -45.76 -0.33 45.85 62.31 90.59 119.71 129.41 187.38 203.66 247.56 284.81 332.30 363.46 463.43 592.08 648.68 607.93 526.62 491.34 427.04 376.19 344.86 307.25 283.32 266.11 233.82 220.19 207.56 195.62 200.97 212.10 225.36 220.83 214.09 194.47 176.06 176.85 169.40 169.42 158.25 153.42 152.55 143.69 138.71 146.42 149.81 153.94 166.08 175.78 195.83 219.67 229.13 253.71 276.16 293.52 318.07 339.57 370.09 393.55 430.24 451.24 470.87 487.60 496.88 513.45 527.86 536.14 555.83 563.36 575.52 582.41 572.87 618.85 716.42 646.67 638.55 426.88 223.04 174.87 127.23 86.83 36.04 -94.13 -2754.51 -4472.46 -4520.08 -4445.92 -4457.97 -4477.27 -4410.01 -4254.37 -3637.52 -2545.75 -1868.58 -1743.07 -2050.30 -2384.77 -2684.17 -2937.44 -3316.69 -3541.93 -3763.01 -3824.20 -3881.51 -3940.44 -3960.85 -3970.36 -3970.73 -3970.09 -3969.11 -3967.77 -3965.50 -3965.58
-5902.75 -5902.67 -5912.15 -5918.95 -5924.33 -5934.88 -5944.19 -5951.98 -5963.51 -5965.77 -5956.36 -5923.25 -5873.50 -5667.76 -5251.06 -4801.50 -4141.69 -3742.72 -3120.40 -2498.01 -2055.42 -1928.26 -1786.69 -1351.98 -299.87 -243.53 -134.10 -60.20 -33.60 -5.99 40.97 60.63 94.62 137.87 153.27 178.37 259.44 308.29 342.15 382.85 492.03 536.29 625.24 615.46 558.12 526.92 495.18 439.16 389.90 363.88 327.13 301.22 273.01 254.98 235.30 224.23 223.52 231.00 249.31 240.71 235.68 225.51 214.13 204.44 196.43 188.43 178.28 171.36 165.02 156.74 152.02 151.65 151.04 151.03 158.04 164.91 175.55 195.20 216.93 221.53 266.33 272.92 292.14 326.64 343.57 375.77 407.42 428.17 453.42 486.73 498.03 524.07 541.83 562.81 566.36 583.35 588.39 587.51 590.98 603.51 656.13 707.82 559.28 386.68 321.04 211.77 157.44 122.63 87.78 12.58 -343.90 -2776.52 -4273.06 -4095.99 -4062.05 -4148.08 -4253.07 -4234.45 -4157.75 -3445.65 -2712.77 -1776.07 -1805.98 -2086.63 -2512.69 -2761.31 -3040.40 -3320.91 -3505.53 -3699.74 -3825.35 -3871.99 -3943.02 -3963.20 -3973.03 -3976.12 -3975.23 -3975.63 -3974.27 -3975.33 -3976.17
-5916.82 -5916.73 -5925.47 -5932.31 -5937.61 -5946.91 -5958.67 -5967.17 -5973.00 -5963.80 -5926.29 -5795.67 -5438.60 -5269.20 -4762.32 -4087.04 -3596.45 -2940.58 -2407.57 -2157.69 -1857.23 -1802.66 -1788.76 -1364.91 -322.52 -205.84 -111.75 -48.51 -17.96 8.03 46.64 74.27 110.19 129.37 218.40 246.23 316.57 424.23 425.91 402.52 441.49 539.34 649.23 589.32 529.92 482.23 434.99 422.08 390.81 364.13 338.39 312.70 293.85 265.37 246.99 254.78 248.93 251.75 258.34 261.13 261.63 244.17 231.48 221.19 213.54 199.87 194.57 184.92 178.04 165.00 157.80 153.15 152.44 154.17 158.45 164.89 175.99 195.98 215.37 229.81 259.61 276.14 302.18 332.19 350.68 383.85 406.10 432.11 458.72 496.59 517.34 551.83 572.39 581.43 594.54 604.92 613.47 607.81 606.89 650.94 703.39 586.27 556.43 373.39 251.72 185.13 157.88 107.00 88.71 25.59 -940.20 -1341.87 -4198.27 -3930.60 -3886.17 -3946.43 -4141.21 -4109.06 -3925.97 -3134.26 -1962.84 -1552.09 -1591.70 -2175.88 -2606.48 -2952.24 -3178.01 -3399.05 -3540.19 -3670.38 -3794.63 -3877.85 -3924.67 -3965.61 -3979.64 -3982.58 -3982.99 -3984.02 -3989.13 -3990.15 -3990.24
-5939.66 -5939.57 -5945.49 -5948.60 -5960.54 -5968.34 -5974.90 -5980.37 -5980.39 -5986.87 -5908.03 -5637.78 -5079.77 -4400.22 -3651.41 -3450.96 -3137.59 -2840.68 -2351.19 -2086.45 -1851.40 -1772.10 -1934.15 -1196.49 -328.79 -206.40 -116.22 -49.27 -16.11 -3.15 41.75 83.30 99.11 174.56 206.43 236.50 340.66 450.94 505.60 503.93 498.35 594.76 627.49 565.67 521.46 488.16 442.37 406.58 383.45 358.73 341.24 317.10 306.35 288.00 269.04 266.38 262.33 276.88 295.17 279.94 278.71 254.57 243.45 227.09 218.27 207.85 202.89 192.13 181.56 173.69 160.72 160.19 155.27 155.07 157.84 164.95 172.59 190.04 206.32 227.70 265.73 285.42 311.90 329.04 372.73 395.05 418.38 453.52 480.66 508.17 540.39 566.18 600.11 607.08 620.16 651.30 653.14 658.24 659.68 797.17 675.79 502.25 400.68 279.53 205.35 190.12 150.96 101.57 67.90 31.65 -549.91 -1334.00 -3773.55 -4017.19 -3786.95 -3787.21 -3883.17 -3944.19 -3523.80 -2684.68 -1782.04 -1477.46 -1655.14 -2367.28 -2796.65 -3086.80 -3272.05 -3478.35 -3603.03 -3691.39 -3805.47 -3855.93 -3930.09 -3966.74 -3986.86 -3994.26 -3997.04 -3998.51 -4003.47 -4007.06 -4007.15
-5968.32 -5967.89 -5971.17 -5974.12 -5981.06 -5985.48 -6021.51 -6029.85 -6030.53 -6040.77 -5853.97 -5572.39 -4740.42 -4086.06 -3601.19 -3404.48 -3255.25 -2961.91 -2483.53 -2082.22 -1922.15 -1917.36 -1586.92 -423.06 -307.32 -224.59 -149.85 -45.65 -6.91 4.95 48.69 76.92 144.30 246.87 253.88 259.71 344.51 387.31 494.13 556.41 673.33 668.87 598.27 520.90 493.51 460.64 438.00 414.78 380.25 352.40 341.99 322.38 317.90 289.17 287.11 291.77 299.78 320.85 336.02 298.58 296.09 283.71 268.29 247.21 231.28 222.14 209.25 200.38 191.15 181.05 167.51 160.87 158.11 157.01 159.51 164.94 173.52 189.74 201.18 228.22 256.41 280.30 322.38 349.65 374.64 400.79 429.97 464.64 493.58 523.76 544.95 583.47 608.94 620.85 650.05 660.81 679.90 690.84 779.97 836.45 735.07 490.32 341.21 266.59 211.52 143.72 115.27 96.71 61.20 37.81 -622.53 -1340.82 -3449.78 -3749.79 -3679.24 -3646.02 -3822.68 -3687.29 -2783.62 -1900.75 -1362.67 -1436.82 -1823.52 -2377.50 -2822.86 -3197.68 -3524.80 -3630.79 -3660.64 -3727.12 -3836.68 -3906.95 -3959.79 -3988.33 -4002.85 -4008.39 -4005.30 -4014.61 -4023.45 -4026.29 -4026.38
-6023.09 -6022.96 -6027.99 -6024.14 -6023.99 -6029.74 -6034.88 -6028.82 -6051.63 -5859.56 -5586.76 -5181.66 -4682.58 -4042.68 -3787.36 -3638.79 -3568.14 -3277.04 -2469.13 -2016.45 -1957.82 -1854.48 -1097.04 -395.00 -305.58 -266.95 -212.55 -89.89 -2.12 25.58 80.22 103.26 159.29 257.43 302.75 300.06 342.50 372.12 419.86 546.68 642.18 589.49 542.70 503.76 475.38 423.46 413.82 394.68 369.28 359.08 348.45 325.82 324.34 308.70 311.52 309.31 334.23 365.14 372.66 343.82 323.02 307.37 297.43 261.77 241.23 235.34 221.14 211.32 200.64 184.60 174.69 164.89 159.83 158.49 160.39 167.28 180.09 193.28 201.89 239.82 253.45 296.33 331.00 365.70 385.07 413.75 452.61 474.15 515.28 540.14 560.21 601.17 645.71 662.65 686.74 706.39 732.60 857.02 877.37 782.65 797.21 470.52 315.32 233.92 169.00 117.32 105.84 74.36 24.96 -47.38 -433.05 -1505.14 -4298.61 -3536.67 -3359.37 -3455.24 -3489.66 -3321.14 -2447.79 -1438.51 -1221.33 -1428.08 -2147.92 -2702.01 -2970.65 -3281.76 -3477.21 -3682.99 -3722.23 -3784.64 -3901.63 -3949.80 -3986.64 -4009.58 -4018.30 -4018.81 -4026.55 -4032.82 -4041.48 -4046.39 -4046.49
-6143.69 -6140.58 -6089.81 -6000.79 -5983.51 -5980.04 -5907.54 -5703.92 -5595.20 -5381.11 -4984.50 -4517.68 -4452.74 -4184.21 -4171.76 -3949.42 -3884.41 -3601.20 -2780.99 -2003.80 -1809.74 -1366.29 -685.42 -315.12 -263.19 -206.16 -149.56 -76.90 -9.29 36.66 128.97 153.48 218.29 307.10 390.46 364.20 372.65 455.40 535.78 624.16 615.72 560.10 507.73 472.03 452.38 411.24 393.39 377.67 367.92 351.71 343.88 328.54 324.33 327.90 339.96 351.14 369.94 400.78 419.77 398.51 353.36 329.81 323.73 279.50 261.53 242.59 238.11 221.82 205.69 188.12 179.31 169.78 162.00 159.85 160.16 165.00 176.37 188.71 214.00 249.27 274.35 305.71 331.99 358.70 390.44 414.50 467.27 487.28 524.83 551.53 571.22 630.33 659.04 685.40 722.64 735.67 831.51 932.45 848.80 710.59 739.51 480.36 304.83 193.52 140.87 102.63 75.37 56.85 13.69 -93.00 -773.32 -2797.21 -4066.21 -3239.81 -3274.37 -3382.53 -3098.77 -2806.32 -2027.65 -1260.62 -1106.10 -1575.08 -2069.48 -2642.30 -3031.94 -3378.00 -3566.11 -3692.66 -3751.56 -3838.61 -3938.70 -3999.85 -4020.41 -4020.40 -4034.53 -4037.56 -4042.93 -4051.60 -4055.89 -4067.86 -4067.97
-6031.56 -6031.62 -5771.37 -5697.21 -5608.93 -5388.09 -5249.15 -5002.28 -4782.82 -4630.05 -4594.39 -4427.71 -4355.57 -4351.79 -4356.98 -4314.00 -4178.02 -3738.44 -2951.23 -2161.83 -1350.61 -995.29 -354.53 -282.93 -201.42 -141.18 -114.68 -73.57 -6.42 43.58 91.26 149.26 215.52 281.62 387.31 453.25 464.33 543.54 512.80 536.16 523.43 492.00 476.01 432.78 416.38 384.67 384.86 364.40 353.64 341.57 335.59 330.07 324.76 328.05 334.49 364.09 391.51 427.19 460.32 444.35 418.02 397.62 342.63 311.71 284.54 276.00 241.65 242.39 220.09 202.25 189.19 172.40 166.21 160.36 161.58 169.46 180.97 190.47 210.48 239.64 287.83 309.60 338.49 359.36 396.14 418.30 466.18 501.28 546.10 558.30 597.31 638.96 660.80 704.92 729.00 740.79 924.40 843.59 697.23 506.23 373.47 292.45 244.25 192.48 141.36 89.20 49.67 1.84 -53.21 -155.15 -1759.22 -2965.56 -3932.51 -3243.00 -3140.08 -3261.05 -2925.39 -2248.38 -1694.29 -1126.48 -1105.75 -1641.80 -2253.40 -2772.49 -3021.12 -3277.08 -3534.95 -3728.08 -3830.24 -3938.20 -3969.37 -4014.72 -4039.62 -4048.40 -4046.60 -4054.64 -4062.47 -4069.43 -4089.09 -4088.19 -4088.29
-5169.20 -5170.37 -5136.37 -4941.63 -4961.90 -4636.79 -4599.68 -4486.31 -4471.96 -4431.64 -4411.58 -4400.41 -4406.61 -4410.22 -4404.25 -4407.63 -4332.07 -4040.47 -3194.00 -2519.00 -1281.11 -697.83 -337.21 -272.13 -190.60 -103.29 -82.39 -22.07 11.48 23.72 47.65 144.47 197.40 221.02 307.90 451.37 544.12 527.68 448.33 431.61 451.66 437.76 412.69 397.25 376.62 367.17 353.62 348.24 344.04 331.38 330.70 322.41 321.99 325.81 332.62 357.23 376.23 418.55 450.02 478.05 488.45 400.09 344.66 325.15 307.08 292.45 254.95 246.70 226.27 213.68 197.02 177.72 167.51 161.62 165.74 171.55 180.74 197.11 213.13 237.58 270.55 312.54 347.59 360.76 398.71 433.65 465.52 517.24 533.95 578.60 620.73 648.59 705.70 736.53 742.73 878.15 891.12 678.05 496.32 445.20 304.16 248.25 217.02 181.09 140.80 82.72 48.37 -48.68 -142.70 -1172.06 -2847.80 -3983.97 -4431.51 -3999.68 -3388.03 -3419.50 -2858.24 -2052.28 -1403.97 -942.98 -1126.58 -1580.24 -2204.33 -2694.00 -2878.19 -3233.67 -3565.47 -3843.06 -3910.04 -3973.60 -4013.46 -4026.93 -4065.34 -4067.47 -4069.78 -4074.72 -4080.18 -4092.55 -4099.78 -4108.15 -4108.26
-4480.58 -4481.74 -4525.42 -4574.98 -4496.98 -4451.46 -4419.91 -4406.90 -4414.10 -4422.39 -4419.27 -4421.57 -4424.75 -4429.91 -4432.38 -4440.01 -4424.05 -4261.33 -3884.50 -2789.30 -1342.40 -371.03 -304.97 -255.08 -175.58 -105.89 -61.10 -19.63 -0.75 27.31 51.27 140.85 241.40 309.76 383.37 413.11 414.15 492.85 450.16 355.76 417.24 419.32 368.07 342.64 346.85 339.38 329.09 330.04 326.32 313.96 317.24 316.15 314.76 318.98 333.66 345.77 366.94 390.70 430.74 476.21 496.21 418.53 393.68 351.65 308.79 295.97 275.83 259.26 237.70 224.13 195.01 178.03 169.41 161.88 164.97 171.67 176.00 191.22 208.49 243.12 270.23 300.20 333.25 352.79 420.51 435.83 466.75 516.28 540.80 567.93 639.33 653.33 719.47 747.45 805.92 930.10 867.31 720.26 454.20 355.08 322.64 233.90 185.73 166.33 118.07 86.49 37.14 -36.16 -127.19 -1027.89 -2506.79 -4892.99 -5239.00 -5094.68 -4867.28 -4341.92 -2987.88 -1685.88 -925.16 -876.09 -1077.55 -1515.60 -1883.64 -2512.89 -2748.44 -3295.48 -3572.32 -3887.59 -3999.62 -4025.64 -4053.86 -4066.85 -4083.70 -4083.95 -4090.00 -4094.85 -4100.17 -4103.23 -4118.87 -4127.35 -4127.48
-4414.82 -4414.83 -4433.34 -4433.86 -4435.67 -4435.97 -4434.14 -4436.82 -4437.27 -4434.19 -4433.90 -4437.18 -4444.45 -4447.68 -4454.09 -4462.37 -4437.75 -4350.02 -4103.59 -2785.52 -2386.84 -705.77 -330.12 -270.10 -188.25 -126.88 -73.07 -28.57 -12.15 -0.86 42.28 86.53 163.60 194.47 344.35 345.19 321.25 374.77 376.13 344.81 375.02 375.52 337.10 299.02 301.53 302.17 305.23 309.92 302.43 302.85 307.11 306.52 309.22 316.36 325.35 346.38 361.27 382.94 399.80 477.56 534.05 498.36 428.92 408.58 350.99 312.00 285.32 266.12 250.86 229.62 199.69 181.29 167.79 160.27 163.11 173.15 182.87 199.48 214.32 247.45 277.36 290.37 340.97 362.15 402.26 436.72 486.66 510.45 540.06 598.14 626.16 671.84 713.42 742.08 803.04 887.35 831.19 569.80 353.94 297.60 281.89 229.99 186.40 157.86 112.40 73.38 49.41 -16.31 -131.57 -482.14 -3316.31 -4950.94 -5319.13 -5499.26 -5263.91 -4522.62 -2416.77 -1333.48 -774.16 -853.56 -1084.53 -1532.34 -1943.25 -2415.79 -2829.10 -3285.72 -3753.89 -3938.68 -4063.65 -4073.26 -4078.90 -4090.03 -4102.15 -4108.71 -4106.99 -4113.84 -4115.81 -4124.94 -4131.90 -4143.95 -4144.09
-4457.29 -4456.96 -4460.74 -4460.67 -4463.31 -4464.37 -4461.23 -4454.27 -4455.61 -4454.12 -4450.66 -4451.23 -4458.60 -4462.71 -4464.81 -4471.32 -4453.92 -4409.90 -4075.31 -3307.27 -1849.69 -400.68 -338.20 -253.33 -200.61 -148.27 -89.54 -65.79 -23.61 -9.87 15.72 62.57 92.69 162.31 214.83 211.04 247.87 286.12 287.73 273.62 284.69 291.88 273.38 290.40 280.10 282.99 281.57 286.11 287.37 287.19 289.16 291.50 302.05 312.24 324.77 338.65 356.15 376.26 407.72 472.89 509.09 509.64 480.25 419.67 367.25 321.43 293.68 274.84 270.32 233.86 208.95 192.43 165.68 160.73 161.69 174.49 182.15 199.85 218.85 249.53 264.98 306.16 352.50 385.68 422.35 455.98 493.68 507.79 555.97 594.03 629.82 659.15 705.02 770.96 860.78 801.64 653.70 476.02 330.89 281.40 247.00 217.18 171.93 141.28 110.08 77.06 30.92 -61.14 -118.96 -885.18 -3533.39 -4517.86 -5329.36 -5623.84 -5369.42 -4293.02 -2575.67 -1104.70 -727.12 -838.16 -1251.60 -1494.88 -2136.21 -2610.91 -3096.82 -3384.66 -3851.42 -3974.35 -4071.74 -4105.25 -4100.73 -4114.47 -4115.25 -4123.02 -4125.49 -4132.22 -4135.58 -4142.98 -4150.40 -4159.35 -4159.52
-4474.15 -4474.14 -4476.73 -4481.41 -4479.30 -4477.53 -4475.46 -4483.22 -4474.33 -4471.97 -4474.09 -4469.25 -4470.97 -4472.03 -4477.29 -4480.45 -4459.97 -4285.35 -3919.74 -3257.07 -2269.18 -710.51 -357.83 -276.86 -255.80 -163.12 -140.62 -117.08 -58.95 -28.30 9.72 20.23 39.91 114.15 185.97 193.47 167.67 177.11 196.63 204.46 237.00 231.85 220.79 255.67 254.04 251.30 265.34 266.89 269.32 273.78 279.72 288.04 295.08 306.87 319.07 333.15 350.17 379.81 403.64 459.15 481.01 496.84 506.77 436.94 405.14 348.60 343.48 323.97 282.85 245.32 209.38 205.71 171.81 158.99 160.68 170.30 180.26 196.92 225.91 253.95 275.61 312.42 348.25 374.43 429.87 454.48 487.08 514.30 559.95 589.94 625.27 663.04 732.69 905.44 924.73 745.57 650.06 544.09 362.63 258.83 213.25 176.69 145.99 115.92 70.50 26.83 -35.28 -66.70 -329.25 -934.67 -2998.77 -5092.82 -5524.76 -5690.74 -5345.40 -3807.66 -2039.18 -801.32 -714.52 -847.07 -1254.15 -1700.90 -2395.42 -2702.87 -3224.14 -3483.64 -3727.99 -4001.10 -4106.38 -4136.30 -4135.34 -4131.54 -4141.65 -4144.29 -4147.42 -4148.30 -4151.34 -4155.76 -4163.12 -4172.53 -4172.64
-4497.57 -4497.79 -4499.54 -4499.05 -4503.28 -4497.78 -4493.61 -4494.17 -4484.96 -4481.63 -4488.84 -4489.34 -4485.56 -4485.92 -4485.86 -4481.16 -4409.51 -4137.77 -3700.99 -2900.53 -1347.01 -483.81 -345.85 -327.11 -298.29 -223.20 -194.31 -158.30 -120.17 -56.08 1.18 6.81 19.57 51.07 127.74 133.78 134.11 152.38 156.61 159.77 183.21 176.08 190.97 218.45 217.83 234.78 236.84 244.15 251.98 258.31 265.27 280.80 292.71 306.46 316.40 324.48 345.33 359.86 400.55 427.17 479.43 517.77 575.33 511.42 463.31 443.92 428.35 375.90 299.28 268.86 217.78 212.13 169.86 157.31 160.32 170.85 176.79 191.87 221.38 248.90 281.89 305.93 335.88 364.68 414.22 450.08 489.10 505.66 558.91 587.49 633.99 672.88 750.28 875.62 864.63 630.81 454.53 354.36 259.17 217.31 193.78 142.01 137.29 104.12 70.54 4.43 -36.84 -137.44 -272.20 -954.39 -2418.85 -4545.00 -5275.92 -5367.18 -5584.77 -4560.06 -1514.09 -1087.22 -772.50 -938.27 -1238.72 -1741.54 -2384.39 -2837.70 -3379.90 -3696.17 -3896.09 -4097.72 -4145.60 -4154.61 -4155.27 -4144.35 -4145.05 -4156.09 -4158.11 -4160.49 -4161.90 -4173.35 -4177.26 -4184.87 -4184.91
-4517.41 -4517.35 -4517.52 -4518.37 -4519.33 -4519.83 -4517.98 -4516.05 -4515.14 -4509.37 -4500.07 -4495.94 -4492.73 -4495.65 -4495.79 -4477.74 -4371.80 -4028.20 -3040.11 -2003.64 -1285.54 -470.37 -382.07 -348.19 -322.40 -263.33 -221.11 -194.35 -146.51 -59.38 -28.95 -9.04 3.06 8.35 51.23 80.54 91.57 124.63 133.89 146.03 159.98 168.74 170.03 173.39 202.57 211.23 217.85 225.11 234.46 245.74 256.34 268.75 287.40 291.54 307.02 317.94 338.98 357.77 377.10 393.04 441.28 475.11 468.07 458.94 443.25 443.44 440.32 383.57 332.86 270.40 222.05 196.24 159.04 157.43 158.57 166.91 172.82 191.15 213.26 257.64 273.77 307.87 337.58 365.86 407.04 442.49 493.43 511.63 545.17 589.05 637.05 667.00 792.27 803.54 608.26 461.42 411.20 303.55 237.46 219.27 157.11 135.15 111.22 87.49 31.78 -22.23 -106.75 -204.90 -321.80 -984.10 -1823.51 -4538.65 -4836.69 -5557.51 -5713.16 -4637.62 -2806.70 -1679.78 -1137.65 -1216.56 -1503.43 -1837.87 -2495.42 -3057.03 -3550.81 -3801.90 -4026.22 -4122.29 -4161.97 -4165.94 -4162.91 -4155.65 -4170.80 -4174.20 -4171.10 -4171.51 -4177.70 -4182.98 -4188.75 -4197.54 -4197.60
-4532.54 -4532.47 -4532.11 -4534.84 -4532.50 -4532.19 -4527.69 -4524.27 -4523.04 -4518.88 -4515.02 -4509.07 -4506.14 -4503.74 -4501.75 -4477.85 -4339.62 -3851.57 -2512.60 -1795.64 -1279.47 -824.74 -393.87 -367.97 -332.95 -287.33 -253.35 -227.21 -162.87 -88.09 -67.19 -32.94 -2.33 7.39 34.72 62.61 63.82 86.58 101.71 105.07 128.35 138.54 151.80 153.72 173.35 181.96 192.61 204.00 214.58 229.60 242.51 261.44 279.55 285.30 303.84 314.04 331.38 355.62 375.46 387.00 405.23 439.19 421.52 383.59 375.80 402.22 371.58 367.59 311.39 240.57 212.76 183.32 160.05 157.86 155.95 163.49 175.10 195.17 208.76 218.83 262.23 274.53 341.35 360.60 407.39 430.33 458.11 503.36 531.88 569.62 648.58 749.27 819.89 760.17 601.65 441.07 386.97 241.79 221.21 184.97 148.87 122.52 84.95 48.19 17.05 -27.94 -152.23 -222.57 -409.44 -1246.45 -2675.78 -4594.63 -5533.66 -5830.58 -5749.60 -5156.83 -3980.14 -2698.23 -2374.27 -1544.51 -1952.85 -2234.72 -2706.56 -3235.75 -3563.14 -3904.00 -4100.12 -4155.15 -4167.57 -4181.75 -4192.91 -4204.84 -4195.66 -4185.40 -4183.49 -4188.04 -4191.68 -4197.18 -4204.44 -4209.84 -4209.91
-4545.18 -4545.10 -4545.30 -4548.07 -4545.94 -4543.33 -4541.05 -4539.59 -4536.91 -4532.33 -4525.90 -4521.71 -4513.82 -4511.68 -4509.79 -4482.16 -4305.28 -3960.91 -2758.41 -1929.54 -1398.66 -952.65 -541.08 -384.32 -347.50 -301.01 -285.57 -243.09 -234.51 -192.38 -134.39 -77.89 -11.84 -1.48 2.18 18.51 45.10 66.96 85.95 93.10 96.75 101.33 106.51 121.32 157.91 162.89 180.61 190.74 204.46 216.60 229.12 240.82 259.61 275.84 296.13 310.22 328.53 354.00 368.48 383.53 382.01 391.41 403.84 370.21 350.27 364.58 355.61 311.55 284.67 230.15 209.48 189.25 169.17 158.59 156.09 157.55 176.96 190.35 199.70 227.05 254.86 285.55 332.51 349.08 386.79 429.60 458.08 507.58 536.18 563.65 635.46 732.60 701.75 554.37 435.12 346.21 277.42 221.51 189.05 160.14 147.44 110.19 61.33 38.53 8.83 -57.88 -167.30 -377.47 -537.88 -2301.11 -3791.67 -4658.41 -5553.63 -5819.07 -5841.34 -5690.00 -5246.10 -3784.17 -3050.15 -2553.48 -2275.40 -2630.82 -2996.82 -3521.43 -3811.07 -4030.60 -4149.24 -4171.15 -4190.32 -4206.35 -4222.90 -4214.52 -4204.62 -4197.74 -4197.86 -4197.45 -4201.01 -4208.40 -4214.42 -4221.06 -4221.13
-4556.83 -4556.75 -4557.88 -4555.94 -4560.41 -4556.57 -4554.18 -4550.49 -4547.40 -4541.46 -4539.20 -4531.35 -4523.32 -4519.88 -4515.26 -4498.97 -4393.39 -4222.93 -3499.19 -2858.54 -1731.96 -1157.49 -847.89 -599.99 -418.58 -339.76 -295.95 -269.28 -243.70 -213.27 -174.14 -90.52 -24.36 -13.35 -8.00 2.05 25.90 35.47 71.19 78.12 81.39 89.13 95.56 103.38 129.15 150.30 156.87 167.47 184.36 197.65 224.04 236.26 255.98 273.60 290.35 302.53 320.12 352.62 374.53 371.16 363.78 364.14 371.60 348.66 324.83 322.23 297.40 284.72 247.07 218.94 194.17 184.37 171.12 157.72 155.68 153.54 171.40 185.48 195.02 230.51 267.75 287.22 323.55 339.89 377.31 428.37 446.73 484.20 521.92 579.42 668.73 638.18 512.13 365.24 333.83 256.92 243.70 208.43 179.67 153.29 130.39 81.92 40.68 8.14 -17.51 -97.06 -311.84 -819.96 -917.16 -2271.03 -4048.04 -5226.86 -5539.38 -5812.79 -5851.91 -5828.23 -5718.10 -5245.00 -4081.38 -3373.33 -2750.85 -2991.21 -3311.52 -3526.22 -3919.63 -4148.48 -4156.74 -4182.92 -4198.54 -4212.69 -4232.47 -4226.94 -4215.98 -4211.89 -4206.93 -4206.27 -4211.91 -4218.03 -4225.72 -4231.77 -4231.84
-4568.00 -4568.36 -4569.41 -4569.24 -4568.50 -4569.56 -4564.27 -4560.84 -4560.95 -4549.16 -4544.58 -4539.16 -4532.23 -4526.83 -4517.20 -4508.36 -4440.35 -4262.08 -3858.12 -3390.39 -2886.99 -1929.90 -1289.30 -790.96 -485.43 -372.24 -315.41 -289.89 -269.59 -231.49 -182.81 -137.74 -45.50 -31.50 -25.95 -14.74 8.99 19.53 28.46 51.15 64.70 66.89 74.44 93.20 96.92 116.04 153.23 153.15 166.95 186.82 197.94 233.13 242.28 267.12 279.19 315.90 354.07 371.29 381.54 360.64 353.02 349.99 338.22 321.75 307.46 282.51 262.55 244.71 232.25 218.70 192.40 182.76 167.15 157.21 154.14 154.15 166.57 178.43 195.99 212.47 247.47 271.17 305.76 345.46 363.15 389.82 460.01 481.40 492.25 565.39 605.26 474.50 361.66 307.64 256.46 232.90 213.29 183.77 148.48 110.75 102.21 77.40 51.34 1.36 -62.84 -141.94 -479.86 -1473.96 -1990.05 -2693.76 -4272.09 -5235.57 -5750.44 -5853.08 -5865.64 -5880.55 -5805.29 -5632.70 -4671.49 -3666.28 -2980.74 -3206.97 -3533.30 -3717.25 -3963.02 -4129.28 -4174.04 -4194.92 -4213.14 -4232.79 -4243.87 -4238.84 -4223.20 -4218.70 -4216.21 -4221.38 -4226.66 -4229.38 -4233.93 -4240.46 -4240.54
-4578.78 -4578.70 -4579.79 -4580.90 -4581.11 -4578.73 -4577.92 -4571.15 -4568.59 -4565.55 -4558.79 -4550.21 -4537.19 -4532.89 -4527.11 -4522.68 -4503.22 -4472.47 -4289.40 -4156.76 -3474.16 -2460.41 -1740.29 -1097.07 -515.53 -384.17 -353.21 -334.61 -292.58 -254.54 -211.62 -163.47 -125.49 -67.97 -45.95 -30.64 -17.87 -1.71 11.89 27.61 38.35 44.97 47.06 72.87 90.76 96.36 128.89 138.94 140.02 168.30 187.00 217.18 232.24 257.33 293.72 327.31 376.99 406.08 391.42 361.11 335.24 323.28 315.90 295.99 288.89 275.54 258.83 232.42 218.33 205.19 188.69 180.98 161.25 153.25 153.29 153.89 158.79 172.43 186.85 209.34 242.09 263.38 293.37 342.92 361.07 379.04 438.77 474.11 493.33 544.67 536.87 418.93 312.88 229.01 210.60 187.51 183.00 160.21 113.99 84.92 69.42 43.25 7.42 -47.32 -150.77 -312.59 -808.76 -1701.12 -2410.05 -2741.11 -4446.10 -5201.35 -5697.25 -5818.21 -5860.73 -5895.63 -5902.04 -5790.76 -4866.66 -4069.47 -3181.96 -3324.95 -3615.83 -3930.95 -4057.33 -4164.23 -4190.83 -4199.35 -4220.34 -4242.66 -4249.33 -4247.61 -4233.55 -4230.34 -4229.10 -4229.29 -4231.36 -4238.23 -4242.05 -4249.73 -4249.81
-4589.19 -4589.73 -4590.02 -4590.58 -4588.52 -4586.73 -4585.52 -4583.60 -4578.71 -4572.64 -4563.99 -4557.88 -4549.73 -4543.96 -4536.62 -4527.80 -4517.52 -4503.27 -4458.52 -4241.26 -4029.02 -3236.42 -1741.41 -1165.28 -756.53 -582.83 -457.85 -358.83 -333.30 -267.55 -224.27 -205.88 -155.00 -116.19 -98.75 -66.51 -28.15 -17.86 -16.67 8.75 13.82 22.68 36.70 54.70 77.42 85.20 101.94 119.82 133.19 160.55 170.80 210.10 236.16 263.40 308.15 338.06 403.77 433.88 414.44 366.27 322.77 309.27 296.92 285.61 277.53 262.49 245.44 231.89 214.65 194.09 180.66 161.35 151.36 146.51 146.94 146.72 155.04 168.00 177.73 200.24 221.41 256.81 268.25 321.19 350.51 375.68 416.07 451.36 514.27 561.36 424.34 357.94 278.66 214.87 185.41 170.60 133.57 114.64 88.27 68.86 44.01 12.71 -16.84 -71.39 -155.55 -438.19 -1455.31 -1965.16 -2244.28 -3084.51 -4718.13 -5159.76 -5545.30 -5718.73 -5846.33 -5941.54 -5967.75 -5927.10 -5018.61 -4102.22 -3363.84 -3459.91 -3713.32 -4027.99 -4152.94 -4170.94 -4185.41 -4214.20 -4230.07 -4247.96 -4261.47 -4255.49 -4242.26 -4236.85 -4237.28 -4237.02 -4238.83 -4248.38 -4252.35 -4258.34 -4258.41
-4599.22 -4599.15 -4599.11 -4601.73 -4603.69 -4602.87 -4595.65 -4594.29 -4589.66 -4583.33 -4576.38 -4568.16 -4562.19 -4550.88 -4546.24 -4537.83 -4530.35 -4527.13 -4515.19 -4433.15 -4259.90 -3418.63 -2367.66 -1411.73 -972.49 -778.35 -607.00 -459.00 -414.39 -365.83 -257.68 -254.53 -219.66 -201.88 -172.18 -136.75 -77.36 -33.04 -22.53 -6.23 -2.98 3.80 17.91 34.90 44.19 65.66 73.80 94.52 109.56 139.26 152.13 191.67 223.60 268.67 342.27 349.49 436.41 451.79 421.05 365.93 325.05 296.98 280.32 264.13 253.08 242.28 234.30 230.16 207.01 188.99 169.27 150.31 144.90 141.60 140.99 138.74 141.30 152.46 160.15 185.79 208.89 233.06 265.25 306.27 339.95 355.92 397.28 423.27 513.18 603.80 506.07 265.04 255.32 187.35 148.76 143.64 105.93 87.46 74.87 27.80 -11.92 -31.84 -57.48 -188.42 -594.13 -1057.59 -1755.21 -1893.60 -2498.81 -3383.16 -4473.31 -5444.51 -5695.62 -5726.48 -5849.51 -5980.82 -6021.46 -5965.46 -4932.28 -4130.90 -3463.27 -3579.20 -3887.10 -4092.04 -4151.72 -4176.50 -4204.63 -4220.02 -4246.28 -4260.57 -4270.58 -4258.59 -4250.77 -4245.91 -4243.92 -4247.97 -4250.15 -4255.02 -4258.62 -4266.49 -4266.56
-4608.93 -4608.86 -4609.87 -4611.09 -4610.60 -4609.27 -4608.84 -4604.06 -4599.71 -4594.11 -4590.44 -4576.26 -4571.03 -4566.67 -4553.74 -4547.47 -4537.02 -4533.64 -4517.47 -4490.99 -4133.22 -3473.59 -2380.77 -1371.30 -960.97 -878.47 -665.93 -707.08 -704.83 -706.96 -549.40 -293.70 -269.99 -246.66 -211.11 -161.79 -139.52 -95.42 -51.78 -50.08 -25.98 -15.83 2.67 16.27 27.09 48.65 49.96 65.87 88.22 131.82 148.33 183.78 217.27 281.79 344.44 390.13 435.32 434.63 373.22 356.53 326.52 300.44 263.17 252.52 237.98 232.42 222.07 205.78 191.07 178.97 164.74 151.13 135.60 132.08 127.47 125.31 131.55 140.62 148.34 172.08 197.03 223.24 266.25 297.35 337.07 349.25 368.13 397.49 545.51 748.15 594.77 213.48 171.54 126.04 120.25 91.65 72.11 60.34 31.67 -39.38 -79.83 -177.93 -251.87 -336.16 -884.13 -1415.60 -1789.38 -1973.99 -2548.76 -3276.57 -4357.39 -5207.82 -5657.35 -5699.95 -5849.97 -5995.48 -6056.17 -5869.54 -4866.22 -4289.04 -3695.32 -3838.26 -4027.66 -4116.48 -4165.66 -4185.65 -4210.70 -4232.65 -4250.38 -4271.22 -4280.57 -4262.79 -4255.97 -4251.70 -4253.17 -4253.86 -4257.61 -4264.43 -4268.64 -4272.45 -4272.63
-4618.25 -4618.18 -4618.73 -4621.44 -4622.21 -4620.34 -4617.64 -4614.65 -4613.00 -4604.39 -4599.96 -4594.49 -4587.67 -4577.92 -4569.31 -4565.67 -4554.45 -4546.31 -4521.57 -4435.97 -3892.68 -3352.59 -2170.97 -1293.43 -1000.41 -1074.82 -1220.20 -1069.49 -1055.51 -1312.54 -794.26 -477.42 -315.16 -270.32 -267.62 -223.52 -207.93 -167.47 -136.14 -104.64 -63.79 -37.19 -23.48 -14.50 -12.75 -1.06 27.40 54.18 65.98 104.43 136.97 189.55 240.57 305.60 350.96 371.66 360.70 341.64 326.35 308.97 297.09 268.30 250.47 218.94 212.51 211.33 208.06 200.13 182.30 164.00 151.11 134.73 125.65 119.40 114.37 114.48 123.20 127.16 139.63 167.77 189.70 219.11 248.13 266.30 300.94 330.24 355.91 390.79 479.81 680.65 412.67 199.19 142.55 118.54 103.48 77.88 44.10 24.62 -25.56 -79.76 -220.20 -342.78 -360.57 -934.50 -1332.35 -1709.28 -1834.24 -2091.08 -2992.37 -3967.93 -4552.62 -5409.75 -5615.28 -5705.16 -5798.31 -5949.36 -6068.54 -5687.05 -4821.38 -4061.99 -3754.87 -3927.28 -4124.76 -4154.34 -4177.32 -4195.24 -4222.40 -4240.86 -4252.79 -4276.81 -4284.26 -4270.52 -4260.48 -4258.97 -4258.90 -4261.94 -4268.09 -4270.33 -4273.15 -4278.74 -4278.81
-4627.10 -4627.78 -4629.75 -4629.17 -4629.91 -4628.35 -4628.47 -4624.32 -4624.50 -4619.69 -4615.59 -4609.75 -4607.12 -4591.39 -4582.65 -4578.16 -4572.67 -4566.96 -4530.10 -4371.98 -3901.32 -3000.69 -2045.50 -1499.52 -1534.55 -1598.73 -1635.56 -1736.67 -1960.46 -2070.37 -1847.94 -996.66 -544.20 -335.60 -296.28 -252.68 -237.37 -212.13 -191.17 -160.10 -116.66 -95.28 -51.54 -28.68 -18.67 -13.47 13.73 38.65 53.49 70.79 153.43 209.98 278.27 345.49 279.34 264.93 264.21 263.83 276.28 261.74 280.10 235.74 213.48 209.90 207.12 204.14 200.77 190.68 172.87 156.08 147.40 130.26 119.78 108.34 99.02 104.25 110.50 116.30 121.29 140.51 174.66 209.91 235.40 261.47 288.53 306.82 349.61 462.25 631.12 546.62 231.17 184.23 123.87 108.76 86.53 48.15 13.47 -24.95 -65.63 -149.47 -317.46 -630.71 -1417.25 -1274.73 -1583.48 -1797.16 -1790.16 -2272.92 -2923.78 -4476.77 -5116.35 -5542.49 -5670.31 -5724.93 -5786.72 -5886.19 -5923.84 -5783.62 -4489.31 -3899.59 -3915.48 -4093.04 -4124.38 -4166.25 -4189.08 -4212.12 -4227.53 -4253.77 -4265.65 -4281.20 -4286.15 -4280.52 -4271.89 -4263.65 -4265.81 -4268.40 -4274.61 -4277.62 -4278.12 -4284.38 -4284.45
-4635.41 -4635.34 -4635.87 -4636.27 -4638.42 -4642.00 -4638.72 -4635.93 -4635.67 -4629.59 -4629.19 -4623.48 -4620.11 -4612.12 -4605.52 -4597.69 -4594.52 -4582.17 -4566.82 -4433.63 -4066.52 -3183.63 -2504.34 -2193.75 -2222.09 -2478.03 -2633.42 -2787.00 -2843.57 -3386.30 -3605.19 -2181.91 -1286.61 -371.63 -334.18 -315.32 -277.03 -246.33 -228.55 -202.71 -193.82 -161.84 -97.17 -49.97 -33.12 -22.40 1.56 26.47 33.55 68.73 144.83 215.59 316.33 292.32 264.12 196.07 219.08 245.78 194.97 198.91 213.28 198.63 190.55 185.69 189.52 189.71 178.64 180.22 157.56 147.53 138.89 119.97 110.90 101.38 92.72 90.55 92.30 97.57 107.41 119.86 153.94 177.12 203.90 229.99 270.00 286.59 328.40 370.17 564.12 380.62 188.90 124.38 114.17 73.92 64.92 34.06 -7.27 -40.27 -128.01 -214.96 -737.89 -1178.12 -1762.35 -1623.00 -1657.12 -1850.15 -2205.86 -2999.45 -3801.52 -4780.99 -5334.14 -5554.56 -5659.05 -5720.63 -5796.41 -5850.29 -5783.60 -5142.42 -4287.75 -4063.09 -4057.20 -4120.74 -4160.27 -4173.21 -4195.03 -4217.15 -4234.01 -4260.79 -4275.60 -4289.42 -4293.88 -4283.31 -4278.46 -4276.06 -4276.43 -4275.17 -4280.47 -4282.86 -4283.22 -4289.58 -4289.65
-4643.45 -4643.38 -4644.75 -4647.79 -4649.59 -4648.86 -4651.74 -4649.04 -4645.33 -4647.15 -4645.18 -4638.48 -4634.72 -4628.55 -4629.12 -4619.75 -4614.76 -4610.44 -4597.11 -4476.90 -4260.97 -3871.07 -3521.05 -3416.42 -3357.23 -3902.45 -3984.08 -3941.07 -4143.69 -4094.93 -4588.42 -4713.72 -2459.86 -731.64 -382.75 -390.44 -324.94 -283.62 -261.31 -254.26 -222.31 -156.89 -111.40 -75.48 -59.08 -48.39 -18.11 -10.09 6.73 42.39 84.21 188.98 274.35 227.39 171.97 147.93 177.91 162.01 145.43 159.18 172.98 167.95 169.18 167.81 163.57 167.26 162.90 152.54 145.54 136.62 118.72 112.63 106.36 85.82 82.19 85.34 84.40 82.54 104.01 117.79 142.18 167.49 188.85 203.87 263.23 273.65 309.65 358.85 388.27 186.82 128.86 105.58 59.21 29.24 11.61 -12.10 -18.13 -59.97 -173.01 -436.41 -934.07 -1853.57 -1832.20 -1735.94 -1862.85 -2312.93 -2617.18 -3804.01 -4884.63 -5396.39 -5484.77 -5522.52 -5644.30 -5719.96 -5795.60 -5812.49 -5718.92 -4959.91 -4380.37 -4124.07 -4105.80 -4136.78 -4163.74 -4187.70 -4203.13 -4227.22 -4247.77 -4266.46 -4286.92 -4301.84 -4302.36 -4294.31 -4287.33 -4284.04 -4281.56 -4285.49 -4282.15 -4286.34 -4289.59 -4294.24 -4294.31
-4651.48 -4651.41 -4652.87 -4656.95 -4656.54 -4660.27 -4660.64 -4657.63 -4658.63 -4659.05 -4657.73 -4653.36 -4651.75 -4651.88 -4645.06 -4643.40 -4632.39 -4631.17 -4618.78 -4604.91 -4541.15 -4330.95 -4213.88 -4135.19 -4229.76 -4308.80 -4400.80 -4366.13 -4496.79 -4596.64 -4849.08 -4922.86 -3915.94 -2173.37 -877.38 -451.98 -373.98 -321.08 -305.40 -274.11 -237.70 -185.12 -136.61 -154.72 -106.09 -78.85 -44.73 -19.96 -13.12 31.11 92.05 166.21 199.79 131.24 103.39 101.68 113.84 100.59 121.62 115.09 132.80 155.44 159.37 152.38 152.76 152.03 149.82 145.47 135.98 123.25 115.40 110.28 99.41 79.30 78.37 74.57 72.83 73.07 87.42 108.42 124.77 148.04 173.30 181.30 229.70 251.58 366.53 464.96 293.53 139.24 97.52 75.20 44.75 14.78 -1.25 -15.72 -33.33 -84.15 -205.06 -699.23 -1504.35 -2015.13 -1923.73 -2189.48 -2527.32 -2822.17 -4148.08 -4697.37 -5348.37 -5564.72 -5545.42 -5510.30 -5573.34 -5635.74 -5746.62 -5927.00 -5724.58 -5407.27 -4593.61 -4122.29 -4134.34 -4158.20 -4175.84 -4196.27 -4215.33 -4237.28 -4257.31 -4281.48 -4296.47 -4311.04 -4311.80 -4300.76 -4296.97 -4293.60 -4290.67 -4293.46 -4293.53 -4292.01 -4292.81 -4299.73 -4299.80
-4659.75 -4659.68 -4662.07 -4665.36 -4665.76 -4670.45 -4672.13 -4673.96 -4673.35 -4670.78 -4673.55 -4673.78 -4667.66 -4668.36 -4666.93 -4671.19 -4662.71 -4661.13 -4659.31 -4640.85 -4650.29 -4643.17 -4568.26 -4564.29 -4578.58 -4597.62 -4597.97 -4618.08 -4617.37 -4706.66 -4844.74 -4882.57 -3990.74 -2690.37 -1123.04 -819.97 -449.85 -406.77 -353.02 -317.71 -267.47 -226.53 -217.72 -220.07 -155.13 -123.96 -103.59 -52.77 -24.02 8.08 46.16 77.63 84.26 58.80 88.16 81.18 76.87 77.29 96.22 98.49 110.04 111.13 132.12 124.46 135.75 140.38 139.13 134.35 128.56 119.86 112.15 94.78 79.34 76.10 59.08 51.40 51.59 60.20 69.69 83.84 105.11 128.22 151.65 173.02 178.02 196.11 378.72 402.72 169.30 103.17 82.88 60.62 31.05 -1.77 -29.22 -51.75 -73.82 -134.15 -289.12 -799.45 -2209.58 -2339.21 -2360.84 -2543.81 -3355.11 -4091.28 -4758.94 -5320.57 -5599.72 -5663.44 -5649.83 -5587.50 -5597.58 -5683.29 -5922.71 -6002.46 -6011.90 -5083.96 -4574.07 -4072.84 -4158.43 -4166.87 -4185.92 -4214.86 -4233.73 -4253.82 -4280.35 -4294.07 -4310.96 -4323.91 -4319.18 -4308.61 -4303.15 -4299.85 -4295.43 -4297.59 -4300.34 -4296.71 -4297.08 -4304.41 -4304.47
-4668.47 -4668.41 -4669.96 -4673.83 -4677.55 -4679.88 -4681.25 -4683.88 -4687.46 -4688.47 -4689.61 -4691.07 -4693.38 -4692.61 -4692.70 -4690.75 -4688.65 -4682.31 -4677.04 -4684.22 -4672.67 -4669.24 -4653.74 -4663.92 -4652.76 -4670.70 -4669.01 -4661.63 -4664.05 -4700.24 -4803.12 -4822.19 -4432.23 -3407.87 -1780.86 -1170.68 -838.11 -554.72 -397.81 -354.98 -326.61 -297.85 -274.29 -250.17 -221.56 -164.61 -122.12 -79.74 -56.35 -23.85 13.01 37.71 33.67 35.72 46.58 54.76 67.79 64.19 62.87 60.39 67.20 80.45 111.49 110.02 121.74 125.22 122.77 125.55 117.77 112.98 91.86 74.48 69.49 56.02 48.08 41.41 44.12 49.82 55.83 59.35 72.47 107.16 130.46 151.27 170.17 182.91 250.66 261.02 100.62 71.00 31.79 21.49 8.50 -45.00 -142.25 -147.18 -188.98 -460.79 -950.51 -1701.25 -3271.49 -3207.76 -3435.56 -4124.08 -4458.31 -5056.58 -5361.25 -5612.82 -5623.38 -5676.94 -5681.49 -5643.00 -5637.93 -5757.69 -5926.79 -6013.85 -5660.71 -4762.02 -4147.23 -3995.67 -4160.41 -4182.63 -4205.81 -4226.65 -4250.38 -4271.54 -4294.24 -4306.83 -4321.98 -4331.28 -4325.59 -4317.03 -4311.12 -4305.99 -4309.07 -4307.23 -4304.81 -4303.72 -4303.53 -4308.38 -4308.45
-4677.68 -4677.62 -4681.36 -4683.81 -4688.70 -4692.63 -4692.54 -4694.99 -4697.25 -4698.90 -4701.30 -4702.37 -4702.44 -4708.33 -4714.31 -4714.08 -4713.38 -4709.88 -4709.55 -4701.48 -4709.40 -4703.88 -4699.15 -4699.19 -4689.16 -4693.31 -4692.99 -4682.64 -4683.36 -4695.33 -4776.06 -4818.18 -4787.89 -4517.98 -2790.68 -1803.34 -1125.24 -867.81 -579.09 -381.16 -368.38 -326.02 -331.10 -320.04 -263.56 -228.20 -150.88 -112.88 -102.04 -48.04 -13.07 6.72 3.33 23.40 29.00 16.27 34.07 39.91 50.14 43.41 45.49 47.17 72.52 86.24 106.84 113.20 130.70 112.49 111.11 91.10 77.67 69.81 55.59 38.02 27.89 32.35 35.42 31.61 32.80 36.45 53.76 87.08 99.01 123.07 131.06 139.09 247.70 152.37 78.50 69.88 26.42 11.96 -33.47 -147.94 -316.12 -241.94 -504.48 -1282.17 -1976.37 -2557.93 -3679.18 -4591.09 -4880.61 -5275.03 -5229.73 -5451.24 -5653.05 -5647.78 -5689.37 -5656.52 -5602.11 -5390.45 -5324.58 -5356.10 -5401.61 -5277.67 -5356.06 -4309.32 -3745.72 -4013.12 -4172.15 -4203.26 -4229.61 -4249.83 -4276.49 -4292.60 -4311.71 -4321.39 -4341.41 -4344.83 -4335.47 -4327.01 -4322.13 -4318.52 -4317.84 -4316.99 -4311.26 -4310.90 -4312.19 -4312.42 -4312.48
-4687.56 -4687.50 -4689.99 -4696.04 -4700.58 -4703.82 -4708.06 -4710.53 -4710.22 -4714.42 -4717.90 -4720.06 -4723.89 -4722.52 -4732.45 -4732.80 -4735.19 -4737.51 -4732.33 -4733.36 -4734.95 -4727.49 -4728.23 -4727.82 -4717.37 -4724.98 -4716.21 -4709.26 -4704.73 -4714.84 -4724.70 -4780.06 -4846.29 -4651.49 -3878.69 -2710.43 -1577.06 -1012.95 -902.99 -787.60 -540.71 -387.37 -377.14 -344.64 -315.69 -246.38 -159.18 -168.55 -148.30 -112.62 -96.66 -90.63 -55.55 -21.98 -43.13 -32.28 -15.50 5.73 16.58 15.01 25.32 30.78 39.53 58.10 66.91 104.89 126.78 114.92 97.40 74.24 64.25 55.56 37.78 25.70 22.51 19.91 11.36 15.72 22.74 39.15 55.45 75.19 92.73 100.95 101.80 103.60 147.79 111.27 69.56 39.52 12.37 -0.95 -73.22 -159.70 -252.23 -480.31 -1393.38 -2484.51 -3522.74 -4661.24 -4634.54 -5149.25 -5634.77 -5670.65 -5690.32 -5716.98 -5715.66 -5700.16 -5631.68 -4270.98 -4878.27 -4480.17 -4252.93 -3620.53 -3892.26 -4004.83 -4000.15 -3707.55 -3780.28 -4046.39 -4182.78 -4220.69 -4237.38 -4270.07 -4291.75 -4306.31 -4324.75 -4336.02 -4349.15 -4351.32 -4342.31 -4337.20 -4332.59 -4325.53 -4325.34 -4319.60 -4319.72 -4318.71 -4318.37 -4318.71 -4318.78
-4698.50 -4700.08 -4703.98 -4705.81 -4709.81 -4714.31 -4718.50 -4718.56 -4729.48 -4732.65 -4731.66 -4735.92 -4738.12 -4749.11 -4752.33 -4756.92 -4758.23 -4767.35 -4764.61 -4765.24 -4763.40 -4753.01 -4749.70 -4744.13 -4745.91 -4738.79 -4740.58 -4729.25 -4726.09 -4722.35 -4739.02 -4772.67 -4825.57 -4830.16 -4662.94 -3238.86 -2346.13 -1482.34 -1079.88 -979.68 -728.05 -421.80 -397.32 -380.97 -335.35 -262.09 -212.88 -218.32 -183.49 -185.14 -162.15 -187.37 -129.26 -98.53 -109.76 -105.09 -62.21 -20.53 -8.73 3.89 -0.22 20.31 32.06 40.31 45.48 71.61 114.81 117.21 90.02 66.92 44.95 30.74 21.43 11.43 9.98 5.52 -3.60 1.75 7.64 18.60 28.62 45.96 68.50 76.82 82.23 79.42 85.36 71.57 28.67 24.33 -11.33 -91.77 -213.68 -274.87 -700.00 -1321.00 -2849.09 -3514.86 -4593.42 -4800.00 -5420.54 -5543.21 -5660.01 -5702.25 -5612.83 -5534.07 -4673.55 -4274.50 -4376.25 -2186.34 -2080.92 -1819.35 -902.07 -1820.94 -2513.93 -3538.27 -3629.85 -3777.80 -3789.59 -4127.55 -4194.23 -4248.15 -4265.01 -4292.61 -4306.11 -4319.66 -4339.01 -4355.79 -4365.74 -4357.20 -4351.73 -4344.94 -4339.72 -4337.29 -4337.57 -4332.72 -4323.12 -4323.94 -4327.32 -4324.64 -4323.47
-4710.80 -4710.74 -4712.24 -4719.38 -4725.80 -4726.71 -4734.77 -4739.29 -4741.89 -4744.39 -4753.25 -4755.25 -4759.63 -4764.30 -4773.27 -4773.46 -4771.94 -4783.57 -4785.85 -4787.63 -4787.75 -4782.68 -4782.38 -4773.97 -4770.05 -4762.47 -4762.84 -4759.45 -4741.28 -4741.02 -4734.82 -4744.76 -4760.66 -4841.32 -4743.71 -4034.71 -3456.70 -1810.06 -1240.07 -994.54 -810.73 -528.94 -432.98 -399.00 -366.88 -333.82 -298.01 -297.58 -277.05 -264.78 -248.87 -234.55 -206.69 -154.06 -152.89 -155.88 -124.91 -49.37 -48.97 -30.24 -15.58 -1.75 13.28 30.55 30.96 36.72 77.55 105.09 66.40 44.49 32.98 25.38 12.61 -3.71 -9.82 -14.59 -16.11 -15.64 -12.63 -2.54 14.98 23.42 48.88 53.81 54.74 52.91 39.38 24.93 15.55 -10.25 -86.28 -183.97 -292.77 -325.37 -1462.53 -2193.92 -4233.71 -4781.35 -5046.86 -5262.88 -5584.20 -5636.85 -5642.22 -5528.48 -5234.26 -4130.29 -2699.45 -1931.24 -941.43 -306.94 -312.97 -9.34 -362.81 -452.69 -1903.34 -3006.97 -3667.31 -3926.18 -4010.68 -4123.22 -4243.81 -4265.38 -4286.35 -4310.83 -4331.39 -4351.12 -4363.09 -4368.90 -4373.70 -4369.85 -4359.29 -4352.08 -4346.89 -4344.09 -4344.96 -4344.48 -4336.65 -4334.84 -4333.19 -4328.72 -4328.78
-4724.96 -4724.91 -4728.44 -4733.62 -4744.24 -4743.27 -4748.37 -4754.48 -4759.66 -4767.86 -4766.56 -4770.55 -4774.18 -4780.31 -4786.80 -4793.74 -4797.28 -4804.06 -4807.47 -4814.52 -4809.39 -4810.35 -4801.92 -4797.70 -4793.80 -4784.62 -4777.73 -4777.86 -4775.49 -4763.65 -4756.04 -4755.27 -4766.46 -4785.99 -4801.53 -4491.94 -3827.36 -2691.05 -1596.62 -1336.27 -996.91 -732.85 -614.62 -419.04 -389.21 -370.15 -363.31 -345.10 -322.65 -309.43 -291.35 -280.28 -255.16 -189.54 -177.54 -177.66 -178.61 -162.83 -95.25 -68.86 -47.79 -12.40 -8.03 -2.06 16.73 18.32 37.49 47.41 51.56 40.62 16.79 10.53 -9.39 -28.58 -31.32 -32.88 -29.02 -23.21 -32.34 -29.70 -15.17 4.88 17.51 16.68 25.46 31.59 27.57 14.44 5.67 -44.10 -138.53 -288.33 -416.64 -814.78 -1770.44 -3028.69 -4404.79 -5168.17 -5468.46 -5643.06 -5645.92 -5422.42 -5118.02 -4283.87 -2973.01 -535.65 -87.55 -40.18 -8.35 3.57 5.32 5.70 -8.81 -210.57 -1705.53 -3198.14 -3675.51 -3944.60 -4056.72 -4195.30 -4246.25 -4290.05 -4310.40 -4328.30 -4350.17 -4365.16 -4373.61 -4379.00 -4382.55 -4376.94 -4369.58 -4364.37 -4361.00 -4357.91 -4356.69 -4352.81 -4346.19 -4345.93 -4340.51 -4335.05 -4335.11
-4741.58 -4741.53 -4743.82 -4753.00 -4753.48 -4766.08 -4764.74 -4775.36 -4774.37 -4782.08 -4785.88 -4791.48 -4799.12 -4805.03 -4809.37 -4813.95 -4824.86 -4831.78 -4833.16 -4841.80 -4834.91 -4832.76 -4827.21 -4819.08 -4815.09 -4812.03 -4807.45 -4791.07 -4789.91 -4784.37 -4781.64 -4775.61 -4772.60 -4776.17 -4770.75 -4699.01 -4044.97 -3272.36 -2079.30 -1386.70 -1203.49 -1107.40 -981.81 -529.87 -432.55 -411.90 -390.52 -394.51 -398.66 -363.89 -313.67 -306.05 -284.00 -238.16 -221.56 -211.35 -230.70 -221.85 -163.02 -170.77 -108.07 -71.87 -67.76 -36.98 -3.40 1.67 9.22 9.79 18.50 29.07 4.39 -3.26 -19.56 -49.55 -54.81 -57.36 -53.72 -55.17 -66.98 -67.51 -32.54 -17.10 -5.33 -7.44 -1.69 7.91 9.60 4.12 -17.47 -88.48 -159.14 -249.76 -610.66 -1154.38 -2215.08 -2954.42 -4185.43 -4718.88 -4752.83 -3517.03 -3455.99 -3845.57 -2532.97 -1401.03 -819.60 -45.50 -25.96 -11.47 8.06 7.60 5.70 2.97 -220.02 -851.48 -2037.18 -3150.05 -3721.36 -3960.08 -4126.03 -4205.09 -4269.73 -4301.64 -4327.32 -4347.79 -4359.78 -4370.88 -4376.91 -4381.48 -4389.13 -4389.51 -4384.57 -4373.62 -4372.29 -4372.30 -4370.44 -4362.56 -4355.29 -4353.26 -4349.02 -4342.07 -4342.12
-4761.03 -4763.82 -4768.40 -4771.45 -4778.17 -4780.74 -4786.16 -4790.55 -4797.00 -4801.71 -4805.45 -4811.61 -4815.44 -4817.92 -4826.84 -4837.37 -4842.97 -4845.79 -4857.30 -4858.54 -4862.46 -4857.51 -4851.85 -4852.53 -4845.19 -4836.80 -4830.65 -4822.32 -4812.71 -4814.17 -4801.18 -4798.49 -4791.36 -4788.48 -4796.11 -4723.87 -4475.12 -3147.12 -2697.24 -1935.89 -1345.19 -1178.74 -939.80 -802.10 -569.01 -500.77 -431.15 -419.68 -427.24 -410.42 -392.91 -353.48 -353.99 -307.40 -290.60 -259.20 -284.00 -274.25 -246.35 -203.27 -165.90 -148.54 -121.95 -106.83 -85.01 -46.38 -21.25 -10.88 -4.13 8.63 -37.64 -44.92 -66.36 -66.48 -85.56 -82.09 -77.82 -70.13 -83.03 -86.94 -48.12 -41.87 -26.39 -17.09 -31.78 -36.32 -27.45 -53.30 -88.06 -147.63 -223.08 -259.10 -853.31 -1643.20 -2152.51 -2926.11 -3419.61 -3437.09 -2275.33 -1442.19 -900.32 -899.79 -866.33 -549.92 29.84 18.06 1.95 -13.86 1.51 5.69 -3.56 -13.02 -185.63 -1253.12 -2483.45 -3270.59 -3798.50 -4050.64 -4205.96 -4250.09 -4285.55 -4313.31 -4338.63 -4356.69 -4369.70 -4377.02 -4388.12 -4396.95 -4399.05 -4399.25 -4394.94 -4391.20 -4388.74 -4386.43 -4381.42 -4376.54 -4368.72 -4358.56 -4355.42 -4349.00 -4349.06
-4783.45 -4783.40 -4798.18 -4794.64 -4808.07 -4806.76 -4816.04 -4816.74 -4822.26 -4825.22 -4835.25 -4841.35 -4845.51 -4851.66 -4855.90 -4857.47 -4869.25 -4872.04 -4878.09 -4878.41 -4880.56 -4882.98 -4877.91 -4872.61 -4859.21 -4855.97 -4850.87 -4849.80 -4842.62 -4833.13 -4834.11 -4829.48 -4826.59 -4812.97 -4815.16 -4728.53 -4606.94 -4077.81 -2880.66 -2245.80 -1693.18 -1347.75 -1200.59 -961.90 -911.71 -672.23 -735.81 -693.77 -527.07 -510.16 -447.81 -443.03 -388.86 -350.03 -344.13 -330.19 -312.97 -304.96 -284.16 -246.67 -230.73 -217.94 -204.14 -207.74 -174.41 -120.38 -68.38 -48.29 -49.72 -57.45 -59.26 -89.82 -91.97 -106.64 -110.29 -108.74 -104.33 -106.52 -116.19 -141.20 -147.67 -110.83 -99.47 -103.43 -87.99 -72.44 -93.06 -129.93 -151.34 -291.69 -493.09 -863.81 -1315.59 -2061.36 -2310.40 -2921.09 -2860.91 -1339.92 -659.26 -91.10 70.52 -68.58 84.03 81.92 70.39 51.07 18.67 -3.32 -6.28 -5.31 -20.42 -178.73 -373.48 -2266.65 -2957.90 -3575.11 -3971.59 -4143.10 -4220.02 -4254.46 -4284.72 -4323.24 -4354.46 -4370.58 -4381.12 -4396.93 -4398.62 -4406.89 -4409.38 -4409.51 -4411.72 -4408.32 -4403.40 -4397.54 -4398.61 -4387.84 -4380.95 -4369.44 -4364.23 -4355.59 -4355.65
-4809.18 -4812.78 -4820.95 -4827.85 -4832.99 -4836.91 -4835.93 -4845.82 -4849.87 -4854.50 -4867.20 -4863.89 -4874.05 -4875.99 -4888.48 -4887.10 -4890.00 -4893.82 -4907.26 -4915.07 -4910.30 -4907.89 -4905.14 -4899.41 -4897.15 -4886.23 -4878.75 -4872.54 -4866.48 -4861.50 -4861.07 -4858.44 -4849.84 -4849.77 -4841.31 -4849.79 -4736.58 -4326.97 -4046.16 -3005.67 -2110.42 -1756.66 -1560.99 -1241.96 -903.26 -886.41 -878.98 -864.67 -884.72 -784.75 -649.01 -765.98 -541.39 -405.70 -409.99 -382.37 -385.11 -366.26 -354.10 -314.45 -280.87 -270.16 -264.66 -244.90 -236.60 -207.23 -159.83 -120.53 -136.21 -124.54 -123.68 -114.68 -139.81 -129.66 -131.53 -141.33 -159.44 -137.39 -151.24 -150.02 -169.69 -176.50 -176.99 -174.95 -124.50 -131.12 -143.69 -221.58 -235.93 -364.25 -499.35 -819.20 -1907.29 -2490.15 -2310.77 -2188.05 -1975.54 -323.21 71.17 65.41 107.46 122.58 138.56 126.17 80.25 63.28 23.98 -7.12 -33.62 -31.89 -291.54 -450.11 -2250.27 -3386.65 -3497.33 -3661.99 -3985.95 -4153.65 -4234.74 -4278.94 -4293.80 -4333.76 -4364.24 -4379.86 -4394.59 -4404.86 -4411.19 -4416.20 -4425.97 -4426.84 -4424.76 -4421.78 -4419.00 -4413.88 -4410.73 -4404.84 -4395.73 -4381.05 -4371.47 -4361.19 -4361.25
-4838.28 -4842.40 -4847.32 -4855.69 -4860.73 -4871.43 -4877.42 -4882.34 -4887.57 -4891.42 -4891.48 -4898.72 -4896.21 -4906.77 -4904.54 -4915.28 -4922.39 -4930.07 -4930.50 -4933.13 -4933.09 -4937.21 -4931.50 -4923.52 -4925.42 -4923.64 -4908.65 -4909.14 -4891.03 -4888.75 -4889.21 -4885.67 -4888.15 -4882.38 -4888.96 -4866.19 -4837.43 -4565.72 -4322.48 -3954.35 -3194.93 -3075.85 -2401.36 -1977.60 -1742.42 -1072.27 -1059.92 -971.46 -1028.31 -1004.43 -1037.37 -1046.16 -862.29 -830.28 -575.51 -463.01 -499.56 -444.73 -434.28 -396.77 -389.70 -366.55 -343.14 -284.43 -261.26 -261.63 -230.95 -211.34 -224.36 -197.27 -183.54 -189.38 -181.27 -170.17 -178.52 -172.68 -193.64 -180.42 -172.66 -182.92 -214.35 -222.20 -215.22 -208.51 -211.72 -198.86 -215.35 -215.87 -248.62 -329.72 -509.16 -565.86 -803.27 -1580.87 -1654.42 -1213.77 -584.63 60.51 117.71 121.41 220.83 233.77 208.87 163.45 95.20 59.65 13.01 -18.13 -102.40 -187.20 -915.94 -1451.47 -2550.41 -3246.05 -3464.09 -3680.42 -3884.72 -4143.10 -4223.39 -4271.86 -4310.31 -4349.11 -4365.56 -4390.43 -4402.88 -4417.91 -4426.35 -4435.38 -4440.35 -4438.09 -4443.20 -4438.84 -4437.89 -4431.44 -4421.27 -4413.94 -4402.20 -4384.29 -4378.38 -4364.79 -4364.85
-4870.70 -4870.66 -4883.60 -4880.05 -4885.32 -4889.76 -4908.12 -4915.16 -4925.10 -4925.60 -4928.35 -4933.67 -4949.45 -4944.12 -4959.44 -4954.63 -4954.81 -4956.04 -4970.50 -4966.29 -4970.86 -4968.04 -4968.85 -4965.41 -4952.66 -4951.63 -4944.14 -4941.26 -4928.05 -4931.65 -4916.54 -4923.43 -4910.20 -4912.23 -4902.41 -4901.15 -4896.76 -4871.07 -4732.54 -4579.51 -4522.21 -3805.77 -3593.52 -3314.06 -2427.19 -1789.83 -1359.15 -1160.11 -1104.57 -1134.02 -1144.38 -1190.78 -1130.82 -1061.47 -908.97 -675.64 -736.01 -632.50 -686.58 -560.00 -489.81 -414.26 -369.41 -336.88 -313.44 -302.21 -283.08 -270.65 -261.36 -233.98 -230.44 -230.20 -233.96 -218.78 -230.24 -213.61 -223.88 -226.20 -229.86 -229.14 -228.82 -234.33 -229.88 -216.23 -215.74 -209.83 -210.30 -215.30 -250.18 -310.42 -405.47 -460.46 -633.47 -493.46 -607.31 -144.71 -14.51 142.90 276.75 306.83 371.80 287.11 183.99 123.79 78.01 52.33 15.95 -205.80 -383.05 -1041.78 -1713.87 -2340.19 -2976.03 -3331.30 -3504.14 -3720.44 -3937.80 -4113.93 -4243.14 -4280.59 -4327.52 -4362.02 -4383.87 -4395.64 -4411.99 -4432.51 -4438.24 -4445.55 -4449.46 -4458.44 -4454.83 -4452.10 -4450.38 -4444.47 -4434.55 -4419.76 -4408.97 -4388.24 -4383.81 -4365.29 -4365.35
-4906.14 -4906.11 -4910.66 -4917.65 -4931.38 -4942.79 -4945.91 -4953.97 -4947.06 -4953.62 -4966.90 -4977.50 -4966.15 -4970.11 -4986.50 -4987.57 -4989.91 -4998.45 -4997.16 -5007.23 -5012.61 -5012.81 -5005.97 -4993.55 -4999.93 -4979.88 -4981.53 -4973.88 -4968.34 -4962.20 -4958.07 -4951.39 -4956.01 -4948.53 -4944.23 -4932.87 -4926.85 -4915.82 -4877.42 -4829.89 -4685.03 -4570.94 -4436.33 -4039.12 -3451.13 -2502.51 -1756.85 -1586.13 -1420.68 -1301.32 -1235.04 -1162.64 -1101.47 -1056.22 -1083.27 -1025.38 -1132.77 -960.49 -842.58 -729.36 -529.44 -471.71 -413.07 -385.22 -333.95 -320.29 -301.89 -289.58 -280.57 -266.69 -266.55 -260.77 -253.68 -251.72 -252.52 -260.97 -251.99 -253.10 -251.99 -244.11 -240.44 -232.43 -221.50 -199.59 -210.01 -177.57 -180.91 -190.84 -225.70 -255.51 -333.03 -361.42 -452.36 -326.75 -180.04 -24.11 69.54 307.72 342.94 408.62 428.54 221.02 151.29 107.87 78.22 14.05 -51.26 -220.10 -1110.22 -1530.95 -1910.06 -2312.84 -2933.38 -3345.74 -3508.66 -3742.52 -3991.89 -4117.90 -4244.41 -4293.18 -4333.13 -4365.18 -4389.88 -4407.55 -4431.56 -4443.48 -4452.59 -4463.03 -4471.85 -4470.27 -4470.54 -4464.23 -4461.05 -4454.80 -4437.21 -4427.23 -4409.56 -4394.00 -4379.00 -4364.44 -4361.77
-4944.08 -4944.05 -4962.40 -4980.29 -4979.20 -4976.33 -4992.60 -4997.23 -4992.96 -5001.94 -5003.96 -5007.64 -5018.45 -5034.16 -5039.56 -5037.33 -5045.50 -5041.92 -5048.15 -5040.17 -5041.02 -5042.69 -5038.67 -5035.89 -5026.92 -5021.26 -5032.99 -5035.00 -5019.26 -5012.80 -5008.22 -5005.85 -4996.67 -4991.36 -4983.01 -4962.18 -4960.74 -4962.28 -4956.10 -4914.00 -4853.94 -4834.06 -4804.09 -4630.60 -4562.35 -3518.47 -2946.56 -2319.83 -1909.34 -1563.40 -1343.08 -1209.79 -1250.25 -1068.00 -1082.69 -1179.28 -1144.82 -1081.24 -988.76 -787.43 -615.26 -489.62 -437.88 -391.36 -346.46 -316.92 -302.35 -288.07 -277.02 -274.79 -271.75 -271.38 -266.89 -267.70 -265.62 -263.83 -259.24 -255.19 -251.22 -246.86 -236.72 -216.65 -189.51 -162.08 -158.08 -146.81 -124.94 -150.53 -147.72 -148.09 -172.71 -152.59 -121.26 -144.96 -81.08 74.36 179.89 374.45 444.01 348.17 224.96 130.98 105.01 57.45 29.45 -9.56 -84.94 -1027.87 -1562.53 -1633.96 -2146.54 -2555.05 -3149.72 -3466.23 -3651.41 -3870.50 -4021.37 -4172.34 -4241.14 -4310.45 -4345.36 -4367.40 -4395.23 -4427.23 -4442.89 -4454.02 -4469.29 -4476.79 -4484.72 -4485.62 -4483.44 -4476.66 -4464.55 -4457.70 -4442.32 -4426.99 -4404.17 -4391.95 -4376.33 -4353.08 -4353.15
-4983.92 -4989.68 -4996.94 -5008.67 -5015.81 -5027.02 -5037.90 -5034.22 -5042.58 -5042.47 -5066.21 -5071.68 -5072.69 -5068.28 -5071.53 -5071.41 -5079.32 -5075.91 -5075.72 -5085.27 -5089.61 -5095.00 -5087.42 -5089.80 -5068.20 -5068.48 -5071.41 -5068.49 -5054.36 -5049.83 -5034.17 -5041.21 -5028.95 -5019.67 -5027.22 -5010.65 -4999.72 -4997.07 -4965.73 -4926.80 -4876.45 -4853.16 -4813.65 -4755.61 -4553.80 -4429.89 -3723.77 -3405.35 -2842.64 -2494.63 -2280.75 -2196.40 -2021.93 -1742.44 -1586.16 -1634.04 -1474.56 -1347.80 -1096.18 -905.77 -648.33 -547.20 -473.16 -390.80 -345.55 -321.14 -303.08 -287.17 -278.96 -273.90 -272.74 -272.09 -270.94 -268.56 -268.08 -264.97 -258.14 -255.05 -244.86 -234.46 -218.90 -201.14 -162.72 -103.62 -86.07 -50.47 -60.89 -70.21 -80.33 -86.44 -31.71 -34.74 -2.66 -29.56 6.63 196.33 329.43 453.55 466.75 258.84 110.66 103.43 71.59 -1.08 -16.98 -42.92 -1067.73 -1747.76 -1932.76 -1928.73 -2456.87 -3068.29 -3419.14 -3585.65 -3739.49 -3967.92 -4137.26 -4231.17 -4259.85 -4317.74 -4360.75 -4383.21 -4410.39 -4430.19 -4452.77 -4468.69 -4477.86 -4488.75 -4494.95 -4495.42 -4491.17 -4485.78 -4472.83 -4451.91 -4439.71 -4423.30 -4399.49 -4380.64 -4364.57 -4339.32 -4339.40
-5025.24 -5032.72 -5042.83 -5048.57 -5061.57 -5072.49 -5080.00 -5085.07 -5099.77 -5099.65 -5105.27 -5105.88 -5116.48 -5113.13 -5114.11 -5128.20 -5131.38 -5125.59 -5127.03 -5138.78 -5121.15 -5138.16 -5116.09 -5122.81 -5129.93 -5121.61 -5114.16 -5107.57 -5111.66 -5099.55 -5105.33 -5093.40 -5084.46 -5061.81 -5046.70 -5034.62 -5022.72 -5019.49 -5005.29 -4968.90 -4896.88 -4856.31 -4804.33 -4694.03 -4599.90 -4460.76 -4299.88 -4166.82 -3885.42 -3541.79 -3334.67 -3055.93 -2625.01 -2709.87 -2091.99 -2225.04 -1799.42 -1618.66 -1198.03 -959.89 -782.58 -621.86 -505.69 -412.49 -347.13 -335.00 -307.68 -293.11 -279.50 -274.27 -272.09 -272.15 -270.49 -267.17 -265.16 -258.29 -254.00 -243.74 -233.47 -217.61 -185.83 -162.13 -147.75 -60.03 -41.29 -27.79 -7.14 -10.23 10.77 43.04 40.38 22.32 34.20 126.63 144.79 267.81 409.33 416.37 286.43 154.01 66.60 36.10 -5.76 -54.81 -394.27 -412.62 -1516.96 -1995.36 -2114.34 -2333.07 -2612.64 -3416.72 -3574.37 -3702.98 -3837.01 -4042.92 -4179.87 -4235.44 -4303.04 -4333.64 -4367.41 -4395.15 -4418.71 -4435.44 -4463.79 -4477.47 -4488.83 -4499.30 -4500.48 -4501.49 -4493.47 -4487.04 -4466.29 -4447.61 -4428.50 -4410.29 -4389.40 -4360.23 -4347.68 -4317.48 -4321.23
-5075.15 -5075.06 -5081.49 -5103.98 -5102.64 -5115.81 -5127.25 -5135.14 -5138.09 -5140.15 -5143.56 -5156.40 -5163.75 -5160.87 -5174.92 -5164.11 -5166.07 -5173.48 -5161.87 -5165.91 -5178.82 -5172.50 -5190.22 -5173.21 -5170.82 -5162.55 -5159.10 -5167.48 -5155.29 -5140.66 -5139.41 -5114.98 -5110.53 -5109.52 -5088.57 -5073.37 -5063.15 -5044.84 -5010.93 -4968.43 -4904.38 -4851.10 -4790.82 -4697.46 -4587.00 -4409.83 -4310.75 -4164.44 -4015.66 -3906.04 -3754.22 -3618.61 -3356.44 -3019.03 -2586.14 -2479.77 -2083.05 -1588.84 -1214.54 -1005.16 -831.66 -697.63 -513.54 -422.81 -361.83 -347.37 -328.39 -300.46 -280.85 -276.73 -271.58 -270.68 -268.40 -259.06 -244.23 -241.61 -209.34 -219.05 -199.30 -171.54 -147.79 -118.88 -83.29 -48.48 -23.63 46.87 55.59 49.73 73.75 80.00 96.86 86.99 118.30 227.86 248.34 418.59 563.84 405.10 195.31 105.18 54.83 -41.18 -135.21 -302.00 -1949.70 -1757.51 -1792.71 -2294.46 -2645.23 -2960.50 -3163.91 -3512.23 -3691.90 -3845.97 -3923.61 -4087.48 -4193.63 -4244.45 -4307.57 -4345.66 -4371.47 -4406.63 -4430.05 -4449.29 -4474.81 -4493.38 -4496.51 -4504.20 -4504.80 -4502.51 -4491.17 -4478.02 -4462.74 -4440.17 -4415.50 -4398.28 -4368.49 -4346.49 -4323.74 -4301.57 -4294.55
-5117.62 -5117.52 -5134.11 -5145.45 -5135.91 -5172.52 -5180.64 -5176.86 -5194.58 -5189.51 -5194.09 -5205.85 -5209.70 -5208.92 -5216.49 -5215.84 -5227.22 -5219.94 -5209.14 -5226.71 -5223.16 -5227.00 -5225.45 -5228.80 -5223.55 -5210.57 -5210.16 -5204.59 -5203.76 -5196.06 -5180.18 -5175.48 -5161.71 -5147.49 -5127.14 -5116.10 -5081.49 -5070.87 -5040.23 -4983.68 -4943.08 -4865.30 -4772.53 -4654.40 -4576.19 -4387.27 -4292.27 -4180.48 -4040.50 -3909.62 -3726.87 -3625.29 -3415.79 -3239.59 -2489.00 -2283.50 -1962.33 -1531.09 -1303.00 -1047.37 -870.96 -705.59 -593.17 -451.83 -382.73 -356.89 -332.83 -303.81 -285.77 -271.85 -266.20 -243.43 -242.61 -234.20 -201.21 -174.25 -167.87 -157.32 -157.68 -143.70 -108.21 -60.35 -38.02 -26.02 38.38 72.46 78.66 76.54 81.77 194.44 226.89 260.01 397.70 685.23 449.35 530.99 640.09 398.30 201.66 79.77 -12.68 -402.33 -1282.57 -2310.59 -2892.93 -2616.47 -2556.68 -2819.59 -2881.61 -3243.21 -3480.98 -3740.95 -3822.12 -3911.55 -4021.38 -4088.77 -4249.95 -4280.22 -4330.29 -4361.91 -4392.80 -4412.91 -4439.90 -4467.77 -4485.18 -4495.98 -4501.84 -4504.10 -4502.90 -4499.71 -4484.49 -4469.19 -4445.41 -4422.48 -4395.00 -4373.76 -4352.11 -4316.57 -4300.86 -4271.52 -4268.40
-5159.70 -5159.60 -5182.71 -5174.87 -5193.81 -5211.41 -5220.13 -5226.53 -5229.31 -5239.44 -5250.60 -5258.72 -5242.90 -5257.86 -5254.78 -5258.92 -5255.30 -5257.57 -5270.81 -5267.95 -5264.61 -5263.10 -5270.34 -5258.30 -5261.73 -5257.02 -5258.73 -5253.66 -5241.13 -5238.92 -5221.12 -5215.04 -5209.20 -5194.63 -5178.18 -5155.02 -5125.88 -5101.72 -5053.34 -5012.72 -4963.10 -4921.31 -4817.48 -4714.10 -4571.33 -4457.39 -4348.73 -4264.79 -4079.14 -3969.20 -3761.91 -3567.49 -3439.28 -3209.01 -2848.33 -2469.34 -2123.02 -1632.25 -1318.54 -1097.68 -902.44 -786.93 -642.55 -517.97 -414.34 -364.29 -336.57 -314.17 -290.87 -264.99 -206.59 -211.42 -183.47 -160.23 -112.35 -134.09 -120.91 -121.97 -110.79 -89.82 -62.61 -39.93 6.34 52.17 78.53 80.51 81.97 244.81 342.99 647.74 801.82 851.77 1084.85 1606.03 1167.40 908.70 806.76 585.63 186.51 40.06 -92.16 -1238.04 -2234.24 -3276.16 -3180.92 -2783.73 -2968.48 -3115.24 -3184.52 -3422.24 -3619.21 -3882.11 -3892.58 -4023.32 -4097.90 -4158.77 -4262.18 -4324.92 -4339.87 -4381.69 -4410.59 -4427.97 -4456.68 -4476.16 -4491.03 -4499.77 -4501.45 -4501.48 -4493.39 -4487.29 -4468.48 -4451.37 -4431.71 -4409.58 -4375.49 -4349.62 -4325.65 -4294.08 -4272.43 -4249.50 -4240.56
-5200.30 -5198.33 -5211.47 -5223.84 -5226.92 -5239.09 -5250.24 -5268.71 -5270.93 -5278.46 -5283.56 -5289.41 -5292.35 -5304.05 -5301.54 -5306.57 -5305.85 -5308.16 -5304.47 -5299.08 -5311.23 -5314.31 -5312.66 -5301.55 -5292.46 -5302.77 -5303.79 -5295.17 -5285.60 -5271.23 -5266.90 -5246.04 -5238.65 -5220.45 -5208.74 -5190.00 -5174.27 -5133.95 -5087.62 -5048.85 -4988.35 -4933.47 -4866.49 -4740.30 -4649.19 -4518.66 -4461.24 -4280.38 -4092.58 -3872.95 -3746.23 -3510.59 -3351.54 -3145.96 -2991.96 -2632.25 -2243.01 -1810.73 -1455.07 -1128.04 -992.98 -874.01 -721.92 -557.85 -473.35 -389.47 -321.63 -290.73 -197.60 -153.81 -106.31 -62.41 -60.55 -72.07 -55.99 -72.60 -83.83 -80.85 -59.15 -49.13 -24.66 -21.18 64.65 85.64 111.81 166.22 337.90 593.10 1077.89 1340.40 1629.08 1928.10 1702.48 1735.09 1197.42 822.06 750.06 599.15 -131.70 -902.18 -1335.64 -2137.76 -2986.65 -3593.15 -3230.46 -3211.18 -3246.06 -3470.45 -3610.23 -3646.34 -3884.90 -4005.60 -4058.07 -4143.49 -4152.23 -4222.08 -4280.05 -4331.47 -4361.21 -4379.79 -4421.44 -4437.01 -4458.82 -4474.70 -4491.70 -4495.84 -4494.51 -4491.91 -4483.70 -4473.39 -4458.89 -4435.28 -4405.19 -4382.94 -4353.33 -4327.17 -4291.61 -4268.36 -4251.28 -4212.15 -4212.19
-5238.10 -5236.76 -5249.36 -5266.85 -5276.46 -5282.64 -5300.11 -5306.40 -5312.07 -5318.32 -5315.01 -5324.35 -5330.53 -5332.40 -5331.81 -5339.40 -5332.99 -5338.34 -5342.26 -5339.68 -5343.70 -5335.54 -5345.20 -5335.38 -5340.61 -5342.13 -5332.86 -5325.42 -5324.14 -5307.55 -5303.01 -5296.86 -5275.24 -5262.89 -5236.54 -5225.69 -5209.13 -5170.60 -5108.71 -5067.89 -5025.79 -4990.81 -4920.42 -4820.76 -4782.19 -4668.76 -4481.33 -4356.71 -4197.54 -4003.66 -3770.15 -3490.41 -3269.26 -3112.37 -2907.39 -2583.30 -2264.56 -1953.98 -1364.04 -1210.90 -1006.14 -852.84 -691.47 -610.66 -522.90 -422.53 -316.40 -235.04 -91.79 -72.69 -22.61 31.03 37.20 0.65 -17.81 -42.53 -31.49 -34.66 0.36 16.94 46.71 36.94 154.16 164.13 130.19 192.92 765.57 1115.45 1911.58 2202.29 2111.52 1789.74 1378.43 674.31 828.68 582.59 444.77 -134.92 -1642.30 -2635.91 -2790.84 -3023.33 -3778.21 -3597.48 -3460.30 -3508.01 -3694.48 -3744.34 -3859.34 -3924.81 -4034.11 -4118.03 -4176.30 -4196.39 -4249.45 -4296.74 -4328.22 -4362.25 -4383.57 -4404.38 -4431.92 -4452.20 -4465.97 -4480.29 -4488.00 -4489.21 -4488.14 -4480.22 -4472.00 -4457.76 -4440.25 -4409.66 -4386.45 -4351.18 -4325.97 -4297.21 -4260.67 -4235.91 -4212.72 -4184.48 -4184.53
-5272.20 -5271.75 -5284.23 -5297.13 -5302.22 -5323.42 -5325.71 -5326.55 -5336.81 -5343.98 -5353.34 -5356.98 -5358.55 -5356.36 -5358.07 -5359.54 -5366.96 -5369.19 -5371.40 -5370.81 -5372.58 -5367.42 -5364.02 -5360.16 -5361.95 -5362.53 -5357.18 -5354.18 -5347.13 -5330.99 -5323.39 -5313.07 -5296.64 -5285.76 -5265.66 -5239.29 -5222.06 -5183.22 -5153.36 -5127.16 -5051.52 -5009.14 -4961.45 -4868.07 -4798.03 -4657.89 -4497.21 -4360.13 -4264.19 -3995.22 -3775.43 -3454.51 -3214.45 -2965.96 -2821.94 -2609.41 -2249.84 -1819.93 -1374.70 -1238.15 -1033.36 -888.86 -782.08 -704.79 -578.80 -518.45 -318.55 -136.98 -13.57 40.96 45.71 68.67 92.47 84.55 62.36 45.25 24.67 25.45 56.40 73.58 83.07 407.82 522.77 371.61 618.26 949.18 1203.58 1265.25 1774.62 1718.49 1327.55 889.11 835.51 420.10 264.19 304.08 38.51 -231.33 -2818.95 -4088.66 -4059.02 -3992.81 -3813.71 -3806.67 -3735.88 -3816.69 -3937.47 -3933.44 -4072.55 -4074.88 -4135.00 -4216.49 -4251.05 -4263.06 -4285.85 -4315.31 -4344.53 -4373.98 -4393.21 -4425.60 -4447.37 -4459.09 -4471.03 -4477.46 -4474.87 -4481.16 -4476.17 -4465.78 -4453.51 -4440.20 -4412.78 -4394.29 -4361.75 -4327.39 -4302.76 -4267.66 -4238.91 -4214.00 -4186.82 -4158.76 -4158.81
-5301.82 -5301.74 -5318.52 -5325.52 -5331.54 -5344.14 -5343.37 -5347.03 -5360.27 -5362.24 -5365.63 -5370.61 -5373.06 -5376.87 -5381.02 -5382.72 -5386.14 -5386.33 -5389.88 -5388.47 -5387.13 -5386.50 -5381.92 -5388.16 -5380.47 -5377.84 -5373.17 -5367.74 -5362.06 -5350.90 -5336.40 -5325.57 -5316.04 -5291.17 -5281.03 -5254.71 -5241.76 -5215.51 -5187.37 -5146.39 -5105.66 -5039.79 -4969.86 -4887.97 -4805.36 -4701.43 -4621.31 -4458.64 -4285.37 -3973.51 -3613.73 -3317.94 -3092.90 -2874.86 -2669.34 -2559.72 -2333.22 -1820.46 -1582.97 -1333.28 -1166.90 -906.49 -842.44 -779.06 -651.78 -547.12 -278.48 -60.65 46.26 69.46 71.38 97.59 120.56 117.29 189.11 143.65 127.62 178.11 324.29 397.60 609.94 1232.43 1467.45 1335.53 1081.95 873.45 683.54 705.94 997.64 707.04 390.02 435.17 528.22 225.45 122.28 -126.99 -871.67 -1913.81 -2679.20 -4235.14 -4040.07 -3977.43 -3892.87 -3929.69 -3978.82 -4061.87 -4065.52 -4113.46 -4165.88 -4204.66 -4219.28 -4233.75 -4278.30 -4303.77 -4325.79 -4340.18 -4373.68 -4399.04 -4418.45 -4438.51 -4463.81 -4473.13 -4473.10 -4471.39 -4468.82 -4468.89 -4456.58 -4455.53 -4434.98 -4425.90 -4397.51 -4367.30 -4341.88 -4301.76 -4277.21 -4247.32 -4225.92 -4191.49 -4159.17 -4136.22 -4136.27
-5326.69 -5326.61 -5338.98 -5345.26 -5350.08 -5356.04 -5364.19 -5365.49 -5373.70 -5377.70 -5380.00 -5385.21 -5389.28 -5390.22 -5391.84 -5395.61 -5399.39 -5398.27 -5398.28 -5399.52 -5398.04 -5398.13 -5396.27 -5393.85 -5390.35 -5387.86 -5380.51 -5374.62 -5370.01 -5357.66 -5346.31 -5333.03 -5320.74 -5300.58 -5285.92 -5260.24 -5248.75 -5219.25 -5204.98 -5166.59 -5148.81 -5090.59 -5019.37 -4929.42 -4877.69 -4816.22 -4717.87 -4643.84 -4472.63 -4144.37 -3497.86 -2967.42 -2810.17 -2761.07 -2574.77 -2484.08 -2356.88 -1942.59 -1668.19 -1378.67 -1271.45 -1006.67 -877.72 -816.07 -745.84 -448.17 -148.68 -23.06 65.36 97.00 130.61 217.86 455.89 563.77 504.10 596.89 483.10 739.48 1040.87 1036.12 1235.35 1420.18 1552.93 1226.81 480.71 554.37 388.73 452.98 552.31 556.61 432.40 207.16 254.91 55.57 -518.95 -900.57 -1120.04 -3382.28 -4320.16 -4298.57 -4061.30 -4010.58 -4062.35 -4103.69 -4084.85 -4136.71 -4174.91 -4218.54 -4237.14 -4270.09 -4283.72 -4293.80 -4303.19 -4333.34 -4350.13 -4365.80 -4395.78 -4412.31 -4438.12 -4456.60 -4468.14 -4475.70 -4470.98 -4465.89 -4457.44 -4454.92 -4447.21 -4435.39 -4417.78 -4407.98 -4363.93 -4346.15 -4316.81 -4284.52 -4255.31 -4228.72 -4199.67 -4168.62 -4148.09 -4124.04 -4117.86
-5347.01 -5346.93 -5357.95 -5362.76 -5368.41 -5371.30 -5374.86 -5376.47 -5382.83 -5385.58 -5388.78 -5390.97 -5395.70 -5396.98 -5401.42 -5405.79 -5404.97 -5407.64 -5407.82 -5406.57 -5405.94 -5404.05 -5401.25 -5400.61 -5396.03 -5390.53 -5386.13 -5377.98 -5371.15 -5362.69 -5351.58 -5339.93 -5329.25 -5309.81 -5284.45 -5271.42 -5258.39 -5245.02 -5200.38 -5182.98 -5150.63 -5093.61 -5050.93 -4997.59 -4944.00 -4900.76 -4807.66 -4739.36 -4606.07 -3828.79 -2903.63 -2345.76 -2428.91 -2500.18 -2465.18 -2448.47 -2243.27 -2087.60 -1919.81 -1591.75 -1364.81 -1068.98 -976.45 -896.04 -577.08 -421.51 -99.91 12.02 64.65 142.01 197.85 355.22 992.86 1415.22 1431.22 1706.06 2028.08 1868.06 2001.35 1730.69 1509.95 1312.51 1234.82 476.46 229.83 305.16 218.46 340.67 414.88 297.16 265.36 190.09 91.32 -1530.67 -2798.17 -3083.97 -2759.37 -3473.79 -4745.61 -4255.17 -4160.51 -4180.50 -4166.84 -4214.65 -4205.80 -4203.38 -4236.77 -4269.74 -4289.65 -4303.97 -4312.53 -4328.50 -4344.61 -4358.55 -4385.59 -4400.17 -4433.63 -4443.86 -4460.29 -4466.66 -4467.91 -4473.70 -4468.34 -4455.75 -4446.66 -4439.48 -4430.06 -4416.40 -4408.06 -4381.91 -4358.13 -4330.10 -4298.92 -4270.54 -4242.14 -4209.93 -4189.23 -4146.38 -4130.08 -4103.89 -4103.94
-5362.68 -5362.46 -5367.65 -5372.02 -5375.03 -5377.38 -5380.93 -5383.40 -5386.05 -5388.43 -5391.98 -5395.36 -5398.70 -5401.73 -5405.55 -5407.86 -5409.35 -5411.20 -5412.68 -5411.68 -5411.37 -5407.38 -5405.17 -5402.51 -5398.17 -5391.84 -5384.23 -5378.84 -5367.70 -5361.86 -5352.25 -5335.79 -5324.54 -5307.24 -5293.90 -5283.91 -5265.84 -5248.64 -5222.46 -5197.21 -5152.42 -5103.19 -5059.54 -5014.30 -4967.63 -4939.59 -4880.29 -4813.49 -4355.70 -3328.28 -2164.22 -1755.21 -1727.01 -1951.26 -2232.07 -2379.56 -2268.82 -2204.95 -2071.03 -1828.90 -1492.86 -1191.25 -1007.38 -892.05 -486.61 -253.13 -9.57 75.84 159.42 233.29 344.83 462.51 1105.02 1656.84 1692.53 1727.32 1848.89 1661.49 1635.52 1421.88 857.54 669.27 283.11 235.98 219.65 237.38 172.84 293.27 243.48 -115.59 -332.57 -783.47 -674.41 -2126.16 -3613.23 -4556.72 -4435.35 -4893.21 -4503.61 -4272.96 -4214.61 -4237.94 -4261.23 -4276.30 -4274.94 -4281.93 -4286.27 -4305.99 -4319.12 -4327.06 -4341.68 -4357.51 -4379.59 -4394.03 -4410.88 -4415.35 -4445.84 -4469.63 -4471.91 -4468.76 -4465.28 -4465.49 -4459.62 -4448.64 -4439.17 -4433.70 -4420.33 -4407.51 -4392.20 -4376.74 -4343.66 -4305.09 -4278.33 -4255.13 -4226.56 -4200.04 -4179.74 -4143.30 -4122.07 -4095.01 -4095.07
-5373.90 -5373.83 -5377.91 -5379.63 -5380.94 -5382.41 -5383.36 -5385.16 -5387.18 -5390.42 -5392.32 -5395.98 -5400.10 -5403.58 -5406.41 -5409.61 -5412.91 -5414.74 -5414.80 -5415.34 -5413.91 -5411.88 -5407.39 -5402.84 -5398.37 -5390.85 -5382.68 -5373.99 -5362.09 -5358.09 -5350.23 -5332.65 -5318.60 -5309.79 -5296.17 -5286.50 -5271.01 -5250.93 -5234.44 -5206.42 -5161.40 -5103.15 -5055.33 -5021.43 -4971.43 -4949.71 -4889.45 -4510.34 -3634.25 -2394.79 -1817.88 -1400.75 -1334.30 -1567.60 -2089.60 -2136.76 -2241.99 -2164.19 -2028.67 -1849.10 -1496.86 -1190.01 -1066.52 -722.12 -338.35 -107.07 56.91 110.19 249.35 311.07 358.50 504.06 555.27 498.08 737.64 814.05 731.46 678.21 781.83 323.61 353.42 244.93 209.02 141.29 195.19 167.79 88.88 100.93 -273.32 -768.42 -589.60 -1539.98 -1278.91 -2685.49 -4031.50 -4817.80 -4738.74 -4452.19 -4350.73 -4263.99 -4256.09 -4270.17 -4291.87 -4300.57 -4298.37 -4316.66 -4318.57 -4334.76 -4348.79 -4359.16 -4368.01 -4387.84 -4402.37 -4421.80 -4434.52 -4447.89 -4470.67 -4483.11 -4482.55 -4474.59 -4466.16 -4463.26 -4456.18 -4440.22 -4425.78 -4413.00 -4405.96 -4394.80 -4381.32 -4356.82 -4320.94 -4299.68 -4266.84 -4240.24 -4221.78 -4195.59 -4173.98 -4140.33 -4116.12 -4091.25 -4091.31
-5381.31 -5381.24 -5382.76 -5382.82 -5383.16 -5383.30 -5383.69 -5384.94 -5386.15 -5390.10 -5392.72 -5395.77 -5400.03 -5404.29 -5409.03 -5411.72 -5415.28 -5417.68 -5418.60 -5418.34 -5416.36 -5415.50 -5410.57 -5406.10 -5397.17 -5387.91 -5378.70 -5369.05 -5360.46 -5352.18 -5342.99 -5332.72 -5321.43 -5313.79 -5301.70 -5281.94 -5271.10 -5257.71 -5241.86 -5211.22 -5168.84 -5012.14 -4980.54 -5011.52 -4949.61 -4704.45 -4283.07 -3433.83 -2942.43 -2145.21 -1511.83 -1330.33 -1257.62 -1287.66 -1341.16 -1600.66 -1578.93 -1713.12 -1516.15 -1241.55 -1296.16 -1021.91 -891.47 -474.34 -166.42 -2.01 73.73 111.24 197.01 267.78 331.75 343.87 329.33 331.30 424.42 357.77 316.97 376.07 299.84 215.35 174.29 233.04 224.89 111.15 102.19 34.58 -27.30 -424.22 -1574.32 -2627.27 -2663.73 -3326.20 -3758.53 -3291.86 -4608.13 -4558.58 -4405.89 -4319.83 -4303.93 -4282.89 -4285.65 -4308.32 -4316.13 -4321.55 -4330.14 -4340.21 -4360.18 -4377.01 -4397.30 -4398.83 -4400.02 -4411.17 -4435.39 -4465.92 -4477.43 -4472.61 -4490.81 -4490.57 -4492.47 -4480.72 -4468.16 -4464.12 -4444.99 -4436.55 -4421.88 -4406.55 -4391.76 -4382.72 -4360.31 -4345.49 -4324.92 -4292.46 -4263.68 -4245.62 -4216.34 -4193.78 -4168.82 -4143.83 -4121.04 -4096.26 -4092.36
-5385.54 -5385.47 -5384.88 -5384.09 -5383.13 -5382.26 -5382.11 -5383.33 -5384.58 -5387.25 -5392.77 -5394.60 -5399.88 -5404.46 -5410.33 -5413.80 -5419.96 -5421.21 -5424.40 -5424.75 -5421.53 -5419.97 -5413.73 -5406.48 -5398.14 -5384.85 -5373.93 -5365.35 -5357.41 -5349.52 -5333.07 -5322.95 -5318.38 -5312.66 -5296.09 -5281.86 -5271.76 -5261.39 -5246.21 -5235.17 -5092.46 -4834.50 -4810.99 -4902.74 -4516.69 -3868.42 -3325.54 -2759.01 -1906.45 -1714.03 -1394.12 -1314.75 -1240.97 -1214.31 -1238.41 -1284.16 -1278.09 -1256.13 -1140.16 -896.47 -828.49 -819.46 -548.02 -450.09 -24.29 45.91 95.42 163.71 194.70 237.36 252.80 232.39 254.34 260.29 301.19 264.73 228.01 286.02 257.25 218.53 131.43 153.05 150.13 -72.45 -116.89 -266.55 -1297.46 -3111.35 -4127.24 -4758.20 -4610.28 -4705.87 -4619.32 -4525.21 -4434.24 -4374.18 -4313.09 -4298.78 -4305.18 -4310.62 -4323.29 -4328.95 -4342.23 -4353.06 -4356.14 -4371.73 -4397.03 -4429.56 -4429.79 -4433.38 -4455.63 -4469.19 -4458.08 -4482.30 -4497.17 -4493.54 -4499.07 -4498.81 -4490.54 -4478.28 -4468.41 -4464.31 -4448.91 -4427.82 -4418.00 -4406.39 -4387.31 -4378.50 -4362.56 -4343.20 -4323.55 -4279.00 -4265.55 -4243.21 -4214.75 -4189.80 -4174.51 -4147.35 -4122.07 -4097.35 -4097.42
-5387.13 -5387.06 -5385.12 -5383.32 -5381.03 -5380.47 -5379.83 -5380.80 -5382.49 -5385.19 -5389.60 -5395.77 -5400.12 -5407.24 -5412.32 -5417.70 -5424.84 -5427.22 -5430.75 -5430.04 -5429.33 -5427.79 -5422.45 -5412.38 -5401.56 -5390.76 -5376.73 -5361.13 -5353.30 -5344.23 -5331.28 -5319.57 -5309.03 -5304.16 -5290.62 -5277.24 -5269.18 -5257.20 -5246.17 -5240.64 -5177.23 -5036.49 -4928.18 -4095.31 -3694.48 -3068.80 -2418.35 -1730.89 -1539.88 -1467.69 -1321.16 -1269.43 -1241.27 -1229.81 -1354.79 -1294.17 -1119.09 -1012.57 -905.88 -799.65 -760.38 -696.30 -472.91 -148.11 108.58 357.66 282.70 380.15 266.32 283.76 257.69 220.58 172.05 214.75 316.95 204.49 232.04 256.99 203.54 175.05 117.81 -48.64 -204.68 -1832.60 -1497.87 -2116.41 -4131.64 -4598.78 -4830.33 -4597.12 -4484.90 -4457.45 -4423.38 -4405.22 -4340.07 -4317.66 -4306.17 -4318.61 -4335.95 -4349.58 -4363.05 -4358.66 -4368.45 -4390.96 -4393.92 -4415.17 -4431.85 -4456.33 -4468.79 -4490.55 -4489.67 -4506.44 -4507.35 -4522.87 -4519.99 -4513.36 -4514.84 -4505.69 -4493.96 -4480.54 -4468.61 -4455.35 -4440.62 -4433.31 -4421.52 -4406.03 -4391.26 -4375.43 -4368.34 -4341.89 -4314.86 -4284.43 -4267.42 -4247.16 -4224.15 -4197.74 -4174.90 -4158.39 -4134.18 -4108.11 -4105.50
-5386.67 -5386.29 -5383.06 -5380.00 -5378.04 -5376.35 -5376.37 -5377.07 -5379.60 -5384.66 -5390.59 -5395.16 -5402.29 -5408.37 -5416.65 -5422.35 -5428.88 -5434.93 -5439.67 -5440.98 -5439.65 -5435.74 -5428.46 -5420.35 -5403.83 -5392.49 -5376.89 -5360.85 -5348.04 -5340.91 -5330.89 -5317.54 -5307.07 -5301.00 -5295.22 -5277.40 -5265.37 -5256.03 -5252.39 -5244.40 -5252.72 -5163.47 -4656.15 -4151.56 -2807.33 -1968.12 -1575.18 -1493.63 -1392.38 -1320.41 -1254.13 -1245.52 -1336.86 -1640.13 -1633.96 -1657.18 -1234.21 -959.73 -922.45 -899.29 -802.21 -696.41 -234.71 85.62 596.31 1037.06 1112.38 716.43 325.54 263.56 218.10 190.60 111.36 170.57 254.87 185.96 186.77 153.81 -170.02 -380.72 -368.31 -1215.96 -2518.91 -3854.80 -3169.52 -3681.67 -4660.43 -4951.26 -4532.12 -4490.35 -4408.50 -4391.32 -4363.54 -4343.42 -4326.09 -4315.20 -4326.81 -4346.26 -4371.66 -4377.29 -4389.03 -4394.11 -4415.72 -4419.64 -4420.44 -4437.37 -4451.99 -4487.73 -4502.34 -4513.97 -4537.52 -4536.09 -4531.34 -4537.82 -4537.16 -4530.26 -4525.26 -4510.05 -4499.77 -4487.31 -4471.41 -4461.58 -4449.36 -4437.94 -4422.74 -4408.33 -4398.29 -4379.75 -4369.54 -4346.06 -4323.63 -4296.47 -4275.13 -4253.26 -4232.79 -4218.51 -4185.95 -4163.66 -4136.86 -4115.68 -4115.76
-5384.67 -5384.18 -5381.24 -5377.24 -5375.59 -5372.61 -5372.29 -5374.37 -5376.50 -5382.00 -5387.92 -5395.15 -5403.36 -5410.59 -5419.73 -5428.31 -5437.77 -5442.17 -5448.11 -5452.81 -5449.97 -5447.07 -5441.83 -5425.10 -5411.95 -5393.67 -5377.33 -5364.39 -5351.69 -5339.00 -5329.64 -5316.95 -5307.06 -5299.68 -5292.86 -5278.64 -5268.80 -5267.77 -5260.36 -5247.02 -5206.77 -5037.75 -4207.26 -3334.49 -2049.07 -1637.50 -1511.36 -1439.50 -1409.23 -1369.57 -1215.69 -1373.22 -1871.89 -2528.85 -2564.75 -2326.24 -1484.48 -1243.59 -997.91 -1210.74 -1410.95 -1600.92 -527.86 124.75 507.28 1159.83 1158.32 590.17 219.41 167.83 115.61 130.02 -54.48 -179.43 82.79 -195.79 -48.96 -328.71 -777.34 -2139.46 -3179.47 -3246.96 -4401.43 -4864.52 -4906.67 -4813.63 -4669.22 -4503.00 -4429.00 -4402.63 -4390.02 -4386.83 -4368.27 -4360.60 -4340.64 -4337.31 -4348.02 -4362.62 -4385.58 -4406.71 -4423.61 -4429.00 -4440.14 -4449.66 -4473.24 -4471.78 -4502.34 -4529.42 -4544.86 -4553.29 -4571.18 -4567.50 -4563.65 -4563.54 -4546.26 -4540.49 -4533.17 -4519.45 -4506.90 -4487.05 -4475.38 -4466.87 -4452.34 -4445.55 -4430.55 -4415.35 -4399.09 -4390.54 -4384.52 -4346.20 -4328.81 -4303.78 -4288.99 -4267.91 -4239.05 -4229.89 -4212.80 -4176.76 -4158.74 -4127.31 -4127.39
-5381.47 -5381.40 -5376.25 -5374.17 -5370.66 -5369.44 -5369.60 -5370.88 -5374.33 -5379.37 -5387.25 -5396.49 -5403.23 -5412.91 -5425.48 -5430.66 -5444.60 -5450.60 -5460.45 -5459.77 -5459.96 -5456.79 -5450.97 -5436.17 -5422.24 -5398.47 -5385.15 -5369.60 -5358.49 -5345.91 -5329.73 -5320.71 -5308.54 -5297.61 -5294.26 -5281.40 -5274.10 -5265.93 -5256.24 -5233.26 -5204.66 -4696.91 -3983.52 -2501.21 -1714.81 -1477.87 -1602.45 -1695.60 -1684.11 -1443.00 -1320.97 -2086.13 -2480.59 -3333.22 -3647.11 -2985.07 -2103.05 -1830.64 -1768.15 -2216.93 -2215.44 -2583.51 -1945.19 -664.89 423.47 532.19 329.07 -363.38 -643.42 -223.88 -25.96 -142.60 -635.58 -607.77 -823.03 -2369.33 -1925.24 -2023.77 -3076.37 -4859.74 -4584.91 -4481.36 -4432.74 -4531.32 -4457.51 -4409.89 -4415.13 -4399.29 -4392.72 -4387.83 -4389.66 -4387.87 -4380.06 -4374.48 -4380.64 -4375.49 -4385.73 -4395.12 -4401.55 -4421.66 -4432.09 -4458.04 -4469.16 -4478.02 -4496.74 -4501.44 -4520.04 -4552.58 -4567.04 -4581.30 -4584.96 -4589.36 -4592.76 -4582.63 -4562.45 -4551.66 -4540.45 -4525.80 -4511.40 -4495.96 -4480.23 -4471.78 -4457.87 -4446.23 -4432.94 -4418.58 -4415.65 -4397.21 -4379.36 -4355.81 -4336.69 -4319.38 -4298.67 -4275.40 -4256.88 -4242.78 -4220.25 -4189.99 -4165.93 -4139.13 -4139.21
-5377.50 -5377.44 -5371.71 -5368.83 -5366.25 -5364.87 -5365.61 -5368.24 -5372.34 -5376.15 -5386.71 -5393.66 -5406.03 -5415.81 -5427.21 -5439.87 -5449.61 -5457.71 -5468.13 -5468.34 -5472.44 -5470.64 -5457.05 -5449.11 -5427.97 -5409.73 -5394.40 -5384.38 -5368.82 -5358.70 -5337.12 -5327.35 -5311.42 -5298.02 -5295.38 -5292.08 -5277.31 -5256.19 -5244.49 -5251.45 -5048.11 -4534.75 -3630.44 -2168.63 -1767.92 -1756.96 -1936.75 -2485.14 -2349.67 -1924.80 -1661.10 -2056.84 -3013.03 -4120.55 -4379.66 -3811.47 -3248.72 -3194.47 -3135.14 -3567.36 -3751.00 -3973.49 -3509.02 -3170.16 -2643.36 -1961.55 -1985.34 -2750.45 -1920.10 -2713.71 -2239.71 -1379.22 -1771.10 -2431.18 -3232.94 -4484.74 -3636.49 -3282.43 -4594.24 -4808.51 -4566.38 -4480.95 -4461.96 -4387.50 -4394.86 -4384.80 -4376.46 -4386.90 -4394.13 -4397.29 -4401.11 -4402.73 -4405.19 -4410.79 -4405.42 -4404.49 -4407.66 -4414.97 -4421.81 -4425.99 -4446.13 -4468.20 -4481.15 -4502.19 -4519.84 -4536.90 -4551.16 -4579.25 -4604.43 -4614.14 -4611.37 -4610.28 -4603.45 -4593.49 -4581.07 -4564.23 -4546.61 -4532.17 -4513.87 -4500.53 -4492.75 -4479.77 -4467.19 -4460.42 -4444.59 -4436.19 -4431.38 -4413.06 -4391.01 -4366.09 -4346.44 -4326.49 -4308.30 -4295.77 -4273.11 -4248.96 -4238.37 -4204.73 -4183.34 -4149.84 -4149.91
-5373.05 -5372.98 -5368.11 -5365.17 -5362.32 -5361.48 -5361.81 -5363.91 -5369.10 -5374.99 -5387.81 -5392.26 -5400.59 -5419.52 -5427.55 -5443.79 -5451.38 -5463.28 -5472.55 -5476.61 -5477.26 -5477.86 -5470.51 -5456.49 -5440.10 -5426.51 -5404.88 -5394.46 -5380.04 -5358.57 -5349.35 -5334.43 -5321.31 -5314.69 -5301.32 -5297.60 -5272.60 -5245.43 -5232.57 -5227.17 -5077.99 -4457.25 -3125.98 -2452.06 -2323.60 -2847.28 -3503.77 -3581.19 -3633.49 -2997.76 -2132.24 -2448.92 -3093.06 -4342.34 -4692.05 -4490.37 -4370.56 -3911.14 -4096.60 -4474.46 -4397.83 -4571.48 -4424.73 -4244.01 -4099.80 -4118.64 -4415.86 -4010.28 -4163.41 -3787.76 -3733.95 -4007.13 -4277.73 -4341.47 -4513.68 -4609.16 -4733.18 -4650.34 -4693.76 -4473.84 -4455.90 -4456.07 -4421.59 -4400.55 -4386.47 -4377.41 -4394.07 -4401.73 -4418.47 -4418.92 -4417.32 -4422.60 -4432.35 -4436.01 -4429.33 -4423.45 -4429.49 -4434.99 -4437.14 -4448.32 -4465.55 -4481.42 -4496.92 -4524.69 -4544.15 -4557.44 -4572.51 -4593.37 -4617.01 -4628.62 -4628.29 -4619.69 -4612.06 -4604.76 -4584.82 -4566.62 -4549.48 -4536.22 -4518.85 -4506.75 -4498.86 -4483.89 -4472.50 -4462.53 -4457.12 -4446.08 -4437.37 -4427.57 -4393.33 -4375.89 -4349.20 -4343.20 -4317.84 -4299.26 -4286.02 -4265.91 -4239.81 -4220.50 -4193.68 -4158.59 -4158.67
-5368.34 -5368.04 -5363.18 -5359.78 -5356.87 -5355.25 -5356.18 -5358.79 -5361.75 -5370.29 -5376.92 -5389.14 -5401.86 -5414.26 -5426.19 -5439.79 -5454.81 -5463.71 -5474.43 -5479.66 -5483.68 -5480.90 -5470.53 -5464.95 -5451.19 -5432.11 -5411.14 -5404.61 -5389.25 -5372.52 -5358.87 -5344.22 -5332.87 -5318.70 -5308.63 -5296.30 -5287.34 -5264.75 -5250.57 -5216.49 -5162.13 -4043.38 -3435.20 -2782.23 -3159.40 -3583.11 -4135.44 -4579.32 -4392.83 -4186.76 -2966.52 -2921.87 -3434.81 -4150.75 -4642.82 -4735.58 -4716.33 -4692.72 -4637.44 -4749.99 -4828.76 -4772.05 -4743.16 -4697.45 -4674.75 -4617.00 -4621.24 -4560.86 -4499.69 -4380.35 -4377.79 -4338.36 -4423.88 -4524.12 -4496.17 -4521.60 -4508.88 -4504.76 -4469.08 -4457.91 -4445.48 -4434.22 -4437.07 -4411.56 -4414.22 -4400.24 -4408.58 -4439.75 -4440.98 -4435.48 -4430.78 -4447.52 -4447.17 -4447.29 -4440.01 -4435.33 -4435.37 -4443.78 -4453.85 -4462.41 -4471.06 -4489.67 -4514.42 -4535.91 -4569.08 -4589.71 -4602.99 -4612.90 -4635.64 -4645.95 -4638.81 -4624.96 -4617.54 -4605.39 -4588.69 -4570.79 -4553.60 -4535.07 -4523.28 -4510.02 -4505.59 -4489.47 -4479.56 -4470.75 -4463.77 -4452.56 -4445.02 -4424.67 -4403.53 -4378.45 -4362.38 -4350.17 -4335.42 -4312.24 -4295.15 -4277.31 -4249.53 -4227.19 -4196.64 -4164.59 -4164.67
