-4814.34 -4814.29 -4822.48 -4833.84 -4848.83 -4858.43 -4871.26 -4880.25 -4894.06 -4899.15 -4912.52 -4922.51 -4928.33 -4938.22 -4944.12 -4946.34 -4946.74 -4974.77 -5008.84 -5078.60 -5144.68 -5154.50 -5155.62 -5155.64 -5158.19 -5157.19 -5153.55 -5150.58 -5147.00 -5147.62 -5146.91 -5144.56 -5147.08 -5149.05 -5154.94 -5160.72 -5171.94 -5177.69 -5195.51 -5203.40 -5213.07 -5234.56 -5243.80 -5264.50 -5276.63 -5293.31 -5303.27 -5315.16 -5316.20 -5316.96 -5315.97 -5311.51 -5303.92 -5289.24 -5279.29 -5274.35 -5264.77 -5253.23 -5246.64 -5237.46 -5227.99 -5217.09 -5200.86 -5189.49 -5179.61 -5175.71 -5165.65 -5119.53 -5080.98 -4998.61 -4912.56 -4849.39 -4736.84 -4596.64 -4295.61 -4069.11 -3597.92 -3429.55 -2958.48 -2399.60 -2102.53 -1823.12 -1675.90 -1409.80 -1212.92 -593.49 -53.20 -7.83 6.39 6.15 -0.42 -2.83 -7.53 -13.45 -18.86 -5.72 13.81 35.22 45.56 58.41 60.78 58.89 51.07 44.09 34.91 18.77 8.02 -5.47 -269.93 -2306.73 -8983.68 -9084.17 -9459.85 -9713.23 -9823.84 -9813.78 -9773.75 -9823.30 -9794.85 -8968.77 -6926.69 -4860.98 -4594.17 -4507.17 -4511.03 -4520.28 -4517.53 -4513.78 -4509.17 -4509.53 -4503.50 -4499.24 -4499.39 -4491.94 -4484.99 -4475.37 -4474.62 -4472.03 -4471.33 -4468.34 -4469.32
-4826.85 -4826.80 -4839.29 -4845.80 -4854.78 -4863.12 -4878.02 -4887.18 -4897.81 -4905.95 -4917.47 -4922.72 -4930.64 -4936.87 -4947.04 -4952.78 -4954.79 -4966.01 -4976.27 -5045.35 -5117.22 -5150.44 -5162.02 -5161.45 -5164.16 -5164.75 -5163.75 -5161.19 -5158.35 -5154.45 -5153.00 -5153.79 -5156.66 -5160.13 -5163.28 -5172.01 -5178.90 -5192.99 -5201.32 -5215.58 -5226.85 -5244.67 -5257.90 -5273.22 -5285.70 -5298.05 -5311.31 -5322.64 -5323.30 -5321.85 -5325.62 -5322.67 -5317.63 -5295.75 -5286.12 -5277.86 -5272.71 -5259.00 -5249.37 -5239.88 -5228.25 -5216.47 -5200.38 -5188.94 -5175.65 -5167.78 -5157.41 -5129.06 -5071.43 -4979.72 -4856.69 -4834.49 -4725.37 -4511.40 -4226.82 -3844.32 -3329.58 -3043.47 -2766.30 -2225.64 -1753.13 -1430.91 -1306.39 -1168.60 -696.73 -72.57 -65.91 -20.00 0.58 1.55 -1.14 -2.66 -3.75 -6.46 -8.75 -3.20 13.69 28.95 36.44 44.91 56.71 53.71 49.32 38.32 31.00 21.19 5.68 -5.69 -67.07 -2384.77 -9995.19 -9721.41 -9574.34 -9485.72 -9576.75 -9526.89 -9555.96 -9626.62 -9619.94 -9101.00 -6383.33 -4839.55 -4576.30 -4501.89 -4513.77 -4520.22 -4516.10 -4509.87 -4506.64 -4500.88 -4494.73 -4487.73 -4482.53 -4475.24 -4461.90 -4467.54 -4459.62 -4456.52 -4455.91 -4454.28 -4454.36
-4839.27 -4842.26 -4848.97 -4856.30 -4864.28 -4872.44 -4887.05 -4894.55 -4901.53 -4912.62 -4919.38 -4925.69 -4932.55 -4939.77 -4947.29 -4952.88 -4962.10 -4969.69 -4975.11 -5006.20 -5072.97 -5145.25 -5163.28 -5167.52 -5167.86 -5168.92 -5169.94 -5168.28 -5165.38 -5161.28 -5164.87 -5165.96 -5166.31 -5169.45 -5179.07 -5183.46 -5191.99 -5202.45 -5214.63 -5228.63 -5245.62 -5255.72 -5265.62 -5282.83 -5299.55 -5311.02 -5322.72 -5331.85 -5335.03 -5334.70 -5331.60 -5328.24 -5320.71 -5306.52 -5293.17 -5286.24 -5274.53 -5264.65 -5254.40 -5244.39 -5226.22 -5210.36 -5195.72 -5184.51 -5169.60 -5166.41 -5159.56 -5141.21 -5045.94 -4951.54 -4792.55 -4773.38 -4554.36 -4378.56 -4073.80 -3585.10 -3020.73 -2674.11 -2381.36 -1936.33 -1499.50 -1330.57 -1235.49 -1048.33 -252.66 -54.67 -24.15 -4.59 -0.74 -0.90 8.16 12.45 9.29 5.48 2.57 12.89 17.93 24.91 34.30 38.22 48.47 44.66 41.23 36.24 28.17 20.18 6.98 -3.49 -53.35 -2768.62 -8246.16 -9499.58 -9498.06 -9346.43 -9242.73 -9240.16 -9277.88 -9400.97 -9612.01 -9608.22 -6784.37 -4816.43 -4554.78 -4484.77 -4515.21 -4514.61 -4509.04 -4503.05 -4500.09 -4493.95 -4486.25 -4479.33 -4466.79 -4455.49 -4449.50 -4442.76 -4438.99 -4436.27 -4437.54 -4436.61 -4438.03
-4851.74 -4852.35 -4856.36 -4864.71 -4875.79 -4883.25 -4892.15 -4898.38 -4910.07 -4915.14 -4922.19 -4927.72 -4934.72 -4943.19 -4947.76 -4957.30 -4961.95 -4975.81 -4979.97 -4985.57 -5027.54 -5112.56 -5156.55 -5169.57 -5169.95 -5171.75 -5173.23 -5173.48 -5171.04 -5172.11 -5171.59 -5173.46 -5178.98 -5183.24 -5185.02 -5199.15 -5206.23 -5219.08 -5230.05 -5242.92 -5255.83 -5266.91 -5282.29 -5291.18 -5311.50 -5321.28 -5334.84 -5345.18 -5351.05 -5351.25 -5350.47 -5335.79 -5330.78 -5318.50 -5303.40 -5292.09 -5282.45 -5265.23 -5259.39 -5245.24 -5228.12 -5202.13 -5192.44 -5180.88 -5172.49 -5167.00 -5163.63 -5134.59 -5046.96 -4990.72 -4594.61 -4562.18 -4473.43 -4291.24 -4057.42 -3523.44 -2855.26 -2452.33 -2065.34 -1825.08 -1489.53 -1357.32 -1146.61 -570.27 -98.96 -37.13 -6.94 -4.08 0.75 20.29 29.12 41.49 37.68 24.97 19.18 16.49 37.24 42.86 38.33 39.13 37.18 35.35 33.07 30.01 25.55 20.27 12.60 -1.59 -10.43 -645.46 -6144.66 -9664.12 -9343.39 -9021.40 -8980.36 -9068.02 -9114.26 -9135.04 -9258.62 -8046.75 -6495.14 -4752.83 -4505.05 -4473.46 -4509.82 -4509.50 -4504.38 -4499.13 -4494.17 -4483.90 -4472.96 -4462.73 -4445.32 -4439.99 -4432.42 -4423.76 -4421.89 -4422.79 -4425.46 -4420.68 -4420.76
-4863.62 -4865.69 -4870.78 -4877.10 -4883.72 -4891.08 -4897.77 -4907.00 -4912.93 -4918.28 -4923.72 -4929.71 -4937.42 -4943.09 -4949.58 -4957.27 -4964.73 -4977.52 -4986.59 -4989.07 -5001.46 -5070.31 -5129.11 -5171.88 -5178.89 -5178.01 -5179.24 -5182.57 -5182.23 -5179.57 -5179.45 -5181.57 -5189.31 -5194.16 -5197.18 -5207.00 -5215.03 -5227.94 -5241.16 -5257.68 -5269.72 -5291.41 -5296.54 -5308.46 -5323.91 -5336.28 -5352.67 -5356.02 -5361.66 -5358.45 -5354.19 -5348.58 -5340.71 -5326.60 -5313.95 -5296.52 -5292.59 -5281.77 -5271.90 -5249.38 -5232.64 -5216.18 -5190.80 -5185.55 -5169.38 -5157.65 -5130.76 -5108.12 -4966.27 -4855.86 -4587.90 -4481.77 -4356.19 -3997.00 -3523.89 -2941.77 -2592.00 -2061.51 -1866.28 -1648.31 -1365.75 -1152.20 -1001.25 -306.24 -70.87 -19.15 5.90 12.07 14.60 38.67 75.59 67.44 55.19 63.38 66.61 61.21 65.52 70.77 61.85 44.50 35.79 27.21 23.12 23.11 21.62 17.81 10.62 0.61 -18.72 -213.08 -2739.85 -7176.14 -8744.18 -8765.58 -8773.28 -8801.52 -8858.49 -8961.97 -9015.90 -8167.22 -6000.29 -4700.08 -4467.49 -4468.96 -4501.18 -4507.88 -4503.14 -4493.73 -4485.92 -4474.68 -4463.53 -4443.13 -4434.75 -4425.33 -4417.47 -4411.37 -4409.36 -4406.60 -4405.75 -4402.65 -4402.72
-4875.05 -4875.00 -4877.55 -4884.43 -4889.64 -4899.72 -4907.36 -4912.76 -4918.01 -4922.54 -4928.54 -4934.55 -4939.71 -4944.69 -4952.71 -4959.96 -4967.77 -4977.78 -4988.13 -4993.00 -4993.67 -5040.69 -5076.72 -5162.13 -5182.89 -5204.94 -5192.02 -5190.11 -5188.13 -5186.40 -5186.33 -5190.77 -5196.34 -5197.24 -5201.58 -5188.13 -5178.00 -5205.06 -5193.82 -5199.58 -5232.30 -5266.20 -5310.14 -5312.72 -5316.11 -5336.04 -5352.72 -5363.41 -5361.27 -5362.04 -5359.70 -5355.55 -5346.20 -5333.67 -5324.39 -5311.12 -5302.99 -5287.17 -5276.12 -5266.14 -5247.76 -5237.86 -5213.16 -5185.06 -5165.45 -5153.55 -5098.59 -5063.89 -4959.55 -4855.70 -4540.63 -4217.71 -3831.07 -3799.71 -3066.76 -2490.69 -2260.26 -1983.94 -1751.26 -1461.49 -736.67 -602.43 -320.54 -69.31 -23.00 8.10 18.64 19.12 43.43 71.90 88.89 93.54 94.16 91.79 86.90 91.74 96.95 88.29 76.34 53.09 39.24 23.32 17.80 13.62 11.46 8.52 5.90 -3.75 -20.82 -117.98 -2247.46 -5296.62 -7318.92 -8165.78 -8533.79 -8592.77 -8697.08 -8844.77 -8834.67 -8445.15 -5995.82 -4776.28 -4406.05 -4452.80 -4495.16 -4505.05 -4499.05 -4486.78 -4478.18 -4468.80 -4448.80 -4437.20 -4423.65 -4411.76 -4405.28 -4393.08 -4389.30 -4381.79 -4385.26 -4386.45 -4386.52
-4885.95 -4885.90 -4889.16 -4898.05 -4902.11 -4906.73 -4911.77 -4917.58 -4922.05 -4929.03 -4931.81 -4938.19 -4943.17 -4949.59 -4954.52 -4963.37 -4969.87 -4979.43 -4988.98 -4999.31 -4995.58 -4998.84 -5068.69 -5122.55 -5221.49 -5261.22 -5216.98 -5194.37 -5192.12 -5191.33 -5192.03 -5187.40 -5186.86 -5179.75 -5150.70 -5123.42 -5062.73 -5001.20 -5059.44 -5042.53 -5074.74 -5140.46 -5264.41 -5284.30 -5311.29 -5274.93 -5288.01 -5320.03 -5346.22 -5357.73 -5357.05 -5351.77 -5341.53 -5333.71 -5319.25 -5311.91 -5307.03 -5294.94 -5282.74 -5268.11 -5257.60 -5234.30 -5221.36 -5188.78 -5170.63 -5141.44 -5105.13 -5040.01 -4950.20 -4750.92 -4461.49 -3928.62 -3576.37 -3161.19 -2954.61 -2237.28 -1859.53 -1744.05 -1356.03 -992.01 -255.90 -115.99 -68.55 -28.86 -9.21 26.68 50.60 58.06 81.37 104.95 123.94 135.77 132.28 130.29 114.58 108.77 106.68 90.97 78.32 57.97 45.48 28.49 7.83 2.24 4.65 4.77 4.67 -3.10 -61.26 -438.73 -1817.92 -3721.39 -5714.83 -7077.93 -8128.85 -8216.41 -8217.22 -8276.82 -8266.15 -8316.39 -6183.42 -4579.89 -4419.20 -4439.96 -4486.44 -4502.13 -4497.09 -4482.95 -4475.10 -4458.11 -4439.32 -4425.25 -4406.24 -4404.08 -4386.55 -4381.02 -4377.53 -4371.87 -4370.49 -4369.47 -4370.96
-4898.30 -4898.25 -4903.81 -4906.33 -4909.23 -4914.92 -4919.31 -4923.53 -4930.54 -4930.84 -4937.66 -4942.19 -4947.87 -4951.91 -4957.96 -4965.02 -4972.48 -4983.32 -4992.93 -5002.03 -5009.78 -4996.32 -5005.41 -5097.56 -5176.79 -5190.71 -5174.55 -5187.21 -5186.21 -5178.26 -5153.74 -5146.74 -5089.04 -5081.67 -5019.63 -4781.86 -4392.62 -4564.08 -4650.82 -4627.20 -4760.26 -4815.27 -5087.85 -5172.12 -5167.84 -5191.60 -5201.50 -5183.57 -5231.74 -5242.73 -5326.63 -5334.37 -5331.20 -5320.82 -5313.85 -5295.45 -5292.32 -5290.19 -5286.53 -5273.92 -5260.60 -5238.17 -5221.71 -5198.21 -5179.98 -5152.36 -5124.41 -5049.29 -4902.68 -4716.99 -4386.20 -3945.78 -3590.83 -3079.61 -2700.26 -2029.28 -1528.71 -1174.87 -689.95 -316.92 -77.84 -45.62 -4.24 19.27 34.46 51.81 79.38 82.01 99.31 147.40 162.29 172.78 180.62 151.86 151.27 139.14 124.36 94.11 74.12 59.31 29.89 5.80 -12.74 -15.03 -21.44 -7.46 -2.40 -5.54 -121.09 -458.13 -1602.68 -2497.36 -3628.75 -6155.52 -7865.72 -8031.27 -7320.42 -7358.17 -7209.52 -7371.87 -5731.33 -4605.42 -4414.22 -4408.87 -4472.32 -4496.73 -4492.27 -4479.33 -4461.34 -4448.61 -4428.34 -4416.49 -4396.28 -4386.95 -4376.18 -4366.37 -4357.66 -4355.55 -4358.91 -4353.88 -4353.96
-4921.94 -4923.70 -4917.23 -4918.75 -4918.59 -4929.03 -4928.87 -4930.45 -4933.88 -4938.49 -4944.12 -4947.02 -4951.98 -4960.37 -4960.96 -4974.46 -4977.14 -4991.86 -4996.62 -5014.09 -5019.66 -4996.53 -4958.29 -4933.09 -5001.53 -5055.98 -5118.18 -5134.19 -5157.46 -5158.50 -5125.45 -5029.47 -4753.73 -4566.70 -4384.46 -4047.18 -3402.29 -3269.47 -3660.37 -3883.38 -3791.11 -4108.64 -4651.04 -5014.67 -4958.15 -5120.57 -5126.56 -5133.20 -5112.83 -5168.52 -5272.35 -5302.76 -5322.80 -5310.81 -5287.97 -5263.24 -5254.06 -5248.56 -5251.19 -5246.25 -5244.64 -5233.45 -5215.91 -5195.58 -5175.20 -5155.54 -5079.94 -5031.43 -4862.40 -4729.17 -4503.05 -4152.92 -3690.31 -2950.71 -2747.16 -1498.36 -938.11 -760.00 -301.42 -122.50 -24.18 2.16 49.84 78.33 100.34 97.74 136.08 224.91 291.39 339.41 346.06 233.01 237.67 218.28 209.46 189.29 147.34 117.61 80.31 52.13 7.06 -16.44 -34.78 -68.29 -105.13 -68.73 -20.90 -8.28 -18.85 -168.09 -504.77 -1653.79 -2647.44 -5145.70 -7281.44 -7689.87 -6888.35 -6689.64 -6350.26 -6614.68 -6202.56 -4469.31 -4380.93 -4400.54 -4451.80 -4484.37 -4484.14 -4470.60 -4453.50 -4433.27 -4416.13 -4403.20 -4383.87 -4373.62 -4361.40 -4353.71 -4343.58 -4338.03 -4343.67 -4337.42 -4337.50
-4981.98 -4981.99 -4990.52 -4968.34 -4992.48 -4973.77 -4956.54 -4956.85 -4951.00 -4959.25 -4955.42 -4955.09 -4960.54 -4963.69 -4981.71 -4986.91 -4998.38 -5008.74 -5012.82 -5040.68 -5053.88 -4992.97 -4932.56 -4674.05 -4382.20 -4281.89 -4665.73 -4860.78 -4860.13 -5079.05 -4977.12 -4606.47 -4238.16 -3778.44 -3275.92 -2682.05 -2450.68 -2424.42 -2549.14 -2496.51 -1982.65 -3398.66 -3549.39 -4311.21 -4194.27 -4782.63 -5131.84 -5115.92 -5088.27 -5099.02 -5281.15 -5296.22 -5339.23 -5366.28 -5311.99 -5280.57 -5242.15 -5191.47 -5134.10 -5139.44 -5194.51 -5226.67 -5211.51 -5181.86 -5156.39 -5126.12 -5083.54 -4981.52 -4808.83 -4541.63 -4277.01 -3806.99 -3433.56 -2941.57 -1756.86 -1028.29 -420.59 -70.87 -40.10 -50.02 3.66 22.17 64.08 105.49 113.11 170.30 326.34 431.31 528.34 658.40 599.77 491.64 468.02 466.59 392.80 356.18 236.83 103.64 71.13 13.07 -13.85 -25.76 -63.82 -108.23 -176.72 -147.39 -108.39 -27.01 -34.85 -85.98 -444.77 -1128.33 -2454.52 -4510.17 -6402.74 -6029.89 -5967.06 -5880.86 -6084.85 -6030.47 -5527.22 -4892.62 -4410.97 -4378.71 -4416.98 -4478.25 -4472.44 -4460.16 -4449.95 -4425.41 -4403.05 -4390.52 -4367.14 -4362.71 -4346.00 -4336.80 -4330.66 -4329.43 -4325.96 -4322.67 -4322.75
-5109.81 -5120.61 -5115.33 -5095.50 -5100.91 -5030.47 -5026.79 -4993.93 -5019.43 -5034.53 -4991.34 -4999.27 -5003.03 -5000.98 -5016.27 -5028.32 -5065.27 -5061.59 -5072.76 -5083.03 -5093.22 -4975.39 -4589.29 -4015.37 -3308.55 -3426.49 -3422.16 -4124.77 -4281.17 -4606.47 -4335.54 -3882.80 -3157.21 -2738.95 -2261.09 -1548.47 -1239.21 -1307.18 -1136.84 -849.25 -832.32 -1682.67 -2596.81 -1985.49 -2216.50 -3938.76 -4991.64 -5070.25 -5100.75 -5242.92 -5482.12 -5450.39 -5374.56 -5378.79 -5532.73 -5438.59 -5300.04 -5207.00 -5021.50 -5064.48 -5118.24 -5188.09 -5218.27 -5168.60 -5145.79 -5115.20 -5100.61 -5047.34 -4787.18 -4432.29 -4036.78 -3638.12 -3295.06 -2603.22 -1251.62 -645.28 -30.06 -14.86 -10.88 3.29 42.51 62.26 79.77 116.66 159.58 245.15 371.14 584.92 856.84 977.09 901.30 854.29 913.21 731.25 907.46 723.94 290.74 119.09 80.91 30.77 -2.51 -43.44 -87.38 -122.17 -222.73 -317.93 -147.28 -63.94 -70.96 -249.05 -574.76 -1555.40 -2213.66 -3670.84 -5533.09 -5713.31 -4640.81 -5191.91 -5679.71 -5600.03 -5281.42 -4783.98 -4559.40 -4377.31 -4408.60 -4450.30 -4455.96 -4445.92 -4433.70 -4417.25 -4397.68 -4369.93 -4356.80 -4347.35 -4333.66 -4325.27 -4317.23 -4316.40 -4309.32 -4307.44 -4304.76
-5357.21 -5324.50 -5268.92 -5257.72 -5216.69 -5195.45 -5169.67 -5145.09 -5080.40 -5111.03 -5085.15 -5066.51 -5078.91 -5113.00 -5188.90 -5153.15 -5211.13 -5178.63 -5160.46 -5165.10 -5125.74 -4968.93 -4221.04 -3164.11 -2462.89 -2332.37 -2751.38 -3107.84 -3236.86 -3317.52 -3577.22 -3096.30 -1593.09 -1357.56 -1260.14 -891.85 -87.12 -86.96 -75.91 -48.43 -25.96 -437.49 -1050.46 -593.19 -747.27 -1766.85 -2827.45 -3886.44 -4362.74 -5035.25 -5203.81 -5565.13 -5223.62 -5208.70 -5422.13 -5685.08 -5480.68 -5397.54 -5051.27 -5067.60 -5113.15 -5143.32 -5188.36 -5161.48 -5147.61 -5133.15 -5075.14 -5024.91 -4755.22 -4394.87 -3986.91 -3462.00 -2686.63 -1093.07 -497.78 5.53 21.78 17.31 16.63 51.54 69.75 94.39 115.98 145.65 185.65 222.25 276.35 539.61 822.59 872.23 1091.09 1199.00 1118.60 1036.00 1050.66 634.03 525.87 253.15 102.26 60.14 13.40 -57.10 -114.95 -480.51 -760.37 -969.76 -681.55 -639.80 -503.14 -540.93 -657.06 -1111.07 -1274.22 -1827.54 -3455.92 -3783.14 -3782.52 -4146.00 -4549.29 -4763.36 -5070.82 -4889.81 -4590.35 -4451.01 -4418.42 -4430.65 -4436.93 -4426.02 -4413.85 -4394.14 -4375.67 -4357.35 -4353.06 -4330.59 -4321.43 -4309.92 -4304.34 -4295.57 -4293.67 -4289.10 -4289.15
-5567.94 -5567.72 -5461.86 -5424.36 -5398.14 -5422.01 -5435.60 -5362.59 -5340.74 -5282.53 -5246.51 -5201.72 -5289.69 -5300.75 -5317.79 -5309.47 -5304.41 -5392.88 -5372.33 -5330.34 -5240.51 -4941.49 -4037.81 -3195.63 -2036.28 -1912.60 -1918.75 -2188.61 -2688.68 -2715.73 -1324.10 -579.79 -396.07 -534.87 -327.44 -55.73 -10.70 22.07 21.67 10.53 7.15 -41.56 -85.60 -43.52 -62.27 -194.85 -436.26 -896.73 -2827.38 -2735.29 -2647.08 -2719.49 -2474.75 -1521.64 -3003.05 -3357.50 -5087.05 -4890.58 -3618.23 -4780.22 -5483.96 -5176.01 -5244.47 -5184.22 -5111.05 -4909.54 -4937.92 -4310.11 -3923.10 -3691.83 -3342.99 -3085.47 -2458.66 -581.05 -53.88 16.86 43.35 57.93 58.17 71.11 85.18 108.10 133.75 155.87 201.13 236.40 279.40 377.27 427.72 571.67 779.99 1013.43 1078.91 1267.44 1278.17 780.56 712.69 274.23 151.43 64.45 7.66 -62.56 -115.80 -501.64 -1227.12 -1607.09 -1663.06 -1295.43 -1113.63 -934.21 -838.49 -805.40 -935.42 -1346.21 -2153.67 -2792.35 -2973.11 -3279.33 -3608.81 -4403.71 -4611.91 -4744.81 -4618.94 -4501.66 -4437.06 -4425.13 -4417.82 -4404.65 -4388.74 -4375.88 -4352.44 -4347.81 -4329.58 -4318.02 -4306.79 -4293.59 -4286.68 -4280.87 -4277.30 -4275.31 -4273.34
-5697.50 -5697.36 -5696.88 -5612.91 -5570.26 -5553.68 -5545.69 -5505.71 -5525.25 -5493.63 -5478.50 -5435.83 -5447.48 -5486.89 -5490.81 -5584.42 -5594.46 -5678.28 -5539.63 -5491.90 -5402.95 -4984.14 -3902.35 -2925.31 -2061.23 -1956.40 -1987.10 -2325.09 -2526.48 -1971.71 -700.74 -296.45 -104.20 -42.13 -40.47 -0.55 42.20 73.70 38.59 27.51 16.80 10.72 -15.56 -17.27 -9.74 -31.34 -57.47 -94.40 -633.40 -560.17 -691.02 -422.68 -179.96 -174.74 -238.66 -1082.42 -1447.44 -1894.94 -2285.50 -2514.69 -4304.05 -3586.43 -4768.63 -4766.48 -4647.33 -4374.04 -4397.42 -3686.73 -3318.62 -2669.41 -2833.85 -2723.75 -1237.97 -43.77 -1.60 35.49 64.58 75.99 81.73 88.45 99.34 116.27 150.22 194.81 212.07 251.05 286.85 323.38 377.81 448.76 542.68 695.68 827.11 1060.76 1189.63 951.82 638.94 494.90 277.18 84.81 -9.23 -54.13 -106.89 -241.21 -854.61 -1771.14 -1786.57 -1573.99 -1464.27 -1367.61 -1229.80 -1162.53 -960.53 -1137.34 -1657.02 -1890.83 -2430.23 -2402.27 -2652.58 -3495.11 -3937.12 -4511.48 -4494.87 -4463.03 -4456.25 -4429.08 -4407.67 -4392.19 -4369.69 -4352.95 -4340.38 -4323.16 -4309.33 -4302.46 -4291.02 -4276.89 -4272.01 -4269.93 -4262.16 -4254.85 -4254.90
-5748.52 -5748.44 -5751.65 -5724.84 -5729.94 -5721.45 -5701.50 -5695.30 -5712.28 -5692.00 -5654.07 -5678.27 -5645.15 -5697.50 -5728.34 -5709.25 -5705.57 -5750.03 -5712.75 -5645.91 -5535.33 -5267.65 -4099.84 -3287.62 -2339.89 -2333.39 -2545.70 -2986.01 -2195.97 -956.84 -372.62 -110.86 -50.83 7.68 -0.14 93.87 160.56 186.75 156.77 103.17 19.64 22.49 13.34 18.93 18.73 10.43 -11.70 -23.85 -28.98 -75.15 -88.63 -57.54 -50.67 -79.40 -69.71 -112.98 -227.12 -609.30 -843.31 -1268.91 -1219.87 -1855.19 -2145.81 -3657.34 -3777.29 -3008.40 -2628.79 -2562.06 -2102.27 -1054.18 -1680.51 -1236.31 -405.48 -55.41 30.92 56.92 79.69 85.22 92.26 113.74 125.48 138.32 167.21 199.07 234.65 277.26 287.86 328.34 361.59 415.35 460.20 502.59 636.18 879.37 932.27 933.60 824.06 544.88 256.92 120.31 39.16 -26.20 -71.77 -124.18 -528.49 -1525.62 -1935.53 -1643.55 -1616.20 -1508.67 -1432.01 -1534.15 -1600.41 -1836.18 -1929.53 -1957.56 -2038.64 -2090.17 -2119.24 -2446.53 -2717.19 -3690.54 -3922.34 -4169.03 -4423.68 -4415.03 -4389.05 -4369.36 -4355.00 -4335.80 -4312.06 -4304.51 -4289.95 -4277.42 -4269.39 -4256.61 -4251.65 -4241.88 -4238.62 -4235.59 -4235.64
-5766.46 -5765.42 -5767.83 -5766.27 -5767.46 -5764.76 -5766.31 -5776.10 -5761.86 -5762.11 -5753.47 -5761.23 -5775.80 -5781.31 -5787.93 -5808.25 -5813.85 -5812.57 -5790.30 -5735.82 -5666.79 -5524.41 -4752.96 -3750.16 -3661.33 -3241.64 -3842.26 -3660.40 -1168.13 -436.49 -145.78 -55.85 1.37 45.24 26.52 102.49 249.08 383.24 348.17 256.90 167.45 91.79 42.75 48.36 40.02 37.05 32.49 21.89 19.85 12.93 9.81 -3.11 -17.91 -14.50 -31.14 -51.02 -122.71 -212.73 -261.79 -258.76 -360.92 -400.33 -367.67 -1762.76 -2322.26 -862.43 -1433.84 -595.33 -971.32 -627.26 -531.43 -269.73 -69.73 30.27 54.92 85.45 125.53 124.76 118.37 140.12 145.77 161.00 182.23 207.98 224.37 282.61 286.63 317.72 361.30 410.05 437.58 465.32 488.80 579.39 727.95 868.84 803.65 465.63 284.26 110.12 88.36 37.26 -27.54 -65.98 -142.88 -985.91 -1978.48 -1711.27 -1474.14 -1402.15 -1406.42 -1724.08 -2390.37 -3077.96 -2729.50 -2187.97 -2156.12 -2038.12 -2016.91 -2090.27 -2371.10 -2922.83 -3264.44 -3939.77 -4307.83 -4379.98 -4370.93 -4348.25 -4327.71 -4305.69 -4299.46 -4283.56 -4269.49 -4259.16 -4246.63 -4234.04 -4232.66 -4221.62 -4214.52 -4215.96 -4216.00
-5780.84 -5779.70 -5781.62 -5783.98 -5781.74 -5785.54 -5789.24 -5790.75 -5792.25 -5784.97 -5789.30 -5798.06 -5797.84 -5807.50 -5813.75 -5816.42 -5823.96 -5827.94 -5831.11 -5813.22 -5792.47 -5689.77 -5293.80 -4926.31 -4781.86 -5228.61 -5486.43 -4491.84 -1180.12 -207.01 -96.52 0.34 37.12 71.19 87.19 105.40 240.69 557.67 520.13 335.42 194.27 160.53 115.92 83.96 84.10 63.03 53.22 66.12 61.38 55.60 51.30 47.33 4.25 -13.98 -18.47 -23.30 -37.52 -100.50 -106.97 -178.59 -240.51 -186.40 -218.75 -337.28 -822.59 -420.98 -359.08 -154.45 -93.69 -96.70 -77.11 22.59 43.51 60.14 85.90 133.90 166.60 154.22 145.82 163.59 158.31 178.09 185.92 211.14 232.98 270.13 286.24 313.88 357.88 395.66 422.69 440.78 479.60 504.68 612.57 766.41 821.81 669.08 430.60 192.55 82.71 67.05 34.39 1.90 -83.22 -827.51 -1833.28 -1682.49 -1342.24 -1308.57 -1266.59 -979.13 -2155.81 -3024.68 -2855.53 -2808.58 -2900.79 -2385.62 -2233.35 -2124.02 -2115.66 -2286.28 -2591.82 -3396.97 -3855.69 -4205.24 -4303.35 -4316.85 -4297.07 -4285.32 -4263.28 -4252.18 -4242.94 -4231.40 -4228.39 -4218.66 -4207.51 -4203.91 -4199.49 -4196.90 -4194.15
-5796.52 -5795.17 -5796.61 -5797.10 -5800.59 -5801.13 -5801.01 -5797.51 -5805.81 -5807.00 -5809.51 -5813.54 -5820.82 -5821.96 -5824.90 -5831.17 -5833.85 -5843.04 -5843.48 -5847.35 -5834.67 -5801.87 -5693.63 -5557.56 -5605.63 -6006.64 -6112.59 -4575.78 -1319.82 -219.70 -37.79 27.04 65.25 95.10 130.66 161.26 249.03 325.32 469.11 413.28 531.04 377.70 220.91 126.03 151.53 139.72 91.65 98.81 77.51 68.88 79.33 57.26 60.43 34.87 33.10 23.87 0.68 2.02 -27.92 -52.83 -59.42 -80.40 -99.41 -102.29 -160.75 -141.12 -86.18 -48.36 -15.56 -5.78 11.81 33.32 54.71 69.52 93.31 175.55 267.44 207.75 204.83 198.93 195.06 200.99 207.87 214.71 231.01 254.86 286.11 311.63 352.68 371.46 399.25 415.55 467.94 474.87 532.02 677.68 826.28 876.60 558.29 450.36 146.56 98.99 75.21 31.84 -15.66 -419.95 -1030.84 -980.53 -905.98 -1352.59 -1404.06 -1459.81 -1946.16 -2808.46 -3162.21 -3541.11 -3734.66 -3426.93 -2822.89 -2242.21 -2064.08 -1973.39 -2295.91 -2819.53 -3605.49 -4003.93 -4256.26 -4293.78 -4275.78 -4260.84 -4239.35 -4229.62 -4219.62 -4207.84 -4200.30 -4193.55 -4187.51 -4183.85 -4175.28 -4172.98 -4169.98
-5812.57 -5812.49 -5816.71 -5815.69 -5812.44 -5818.44 -5818.28 -5816.36 -5818.68 -5822.50 -5818.37 -5828.07 -5830.44 -5831.76 -5840.57 -5847.35 -5846.18 -5852.92 -5853.07 -5853.68 -5840.78 -5812.36 -5739.52 -5681.64 -5711.16 -6284.25 -7358.42 -4555.33 -567.23 -221.91 -27.29 38.63 58.52 101.14 143.11 180.58 220.37 260.09 359.90 493.09 561.76 503.30 428.18 189.12 197.95 239.00 276.37 219.73 187.96 132.37 139.47 103.45 112.30 100.50 67.80 56.14 52.28 47.62 15.48 -21.68 -21.90 -24.95 -32.66 -45.13 -63.57 -39.77 -37.26 -16.02 13.26 30.04 39.23 45.52 70.58 91.55 138.77 235.61 331.15 281.85 220.94 206.81 206.03 208.88 212.52 220.70 230.24 242.60 272.26 292.76 321.06 365.10 388.71 409.45 437.25 463.00 468.77 488.91 676.35 790.60 771.04 567.33 268.02 219.44 157.92 77.45 75.62 39.86 -280.45 -297.19 -596.11 -1164.12 -1462.06 -1519.19 -1892.37 -2524.98 -3956.48 -4471.60 -4622.04 -4393.21 -3658.77 -2760.84 -2238.90 -1908.37 -2197.21 -2798.76 -3301.55 -3864.54 -4081.16 -4221.86 -4223.51 -4222.42 -4207.32 -4196.77 -4189.08 -4178.81 -4175.83 -4166.22 -4157.96 -4154.27 -4144.49 -4144.32 -4144.36
-5828.28 -5827.04 -5828.25 -5830.13 -5835.28 -5829.71 -5836.60 -5832.45 -5831.89 -5833.89 -5839.79 -5843.67 -5848.85 -5850.04 -5853.10 -5855.17 -5862.99 -5862.18 -5862.26 -5859.35 -5834.69 -5806.28 -5740.14 -5761.67 -6001.16 -6799.49 -7867.61 -4743.93 -350.81 -140.78 -31.76 27.74 64.57 117.58 147.59 173.87 215.33 285.50 332.95 402.66 532.22 634.62 494.60 324.66 584.45 628.51 670.01 415.96 343.19 178.63 154.11 140.52 140.36 131.40 116.76 88.48 92.02 68.67 56.75 36.10 9.33 0.87 -5.85 -15.18 -2.09 -12.74 -7.70 9.77 16.72 28.32 49.79 64.57 66.75 107.25 187.02 278.52 389.77 353.95 282.42 226.60 238.10 221.56 222.24 228.92 236.43 245.04 263.25 290.62 316.91 355.87 370.20 384.56 416.33 443.31 442.59 454.49 546.46 663.49 815.73 588.02 565.10 495.48 308.15 126.81 96.86 53.60 -3.93 -28.11 -186.22 -1126.19 -1517.14 -1539.10 -1721.29 -2307.61 -3539.69 -4523.81 -4955.57 -4719.35 -4182.20 -3420.62 -2260.11 -1806.92 -2077.95 -2722.32 -3168.66 -3678.30 -4111.80 -4215.12 -4207.23 -4189.65 -4189.87 -4173.87 -4160.07 -4149.02 -4142.00 -4136.46 -4135.02 -4129.38 -4126.17 -4121.20 -4117.94
-5842.26 -5842.18 -5846.10 -5845.36 -5844.34 -5846.37 -5846.34 -5847.85 -5851.66 -5855.79 -5853.39 -5857.24 -5862.88 -5865.48 -5866.40 -5870.77 -5870.90 -5874.56 -5868.97 -5863.36 -5835.34 -5793.63 -5778.99 -5921.97 -6463.24 -7054.06 -4550.96 -1885.32 -172.55 -87.86 -24.29 24.07 69.99 122.55 148.61 190.78 269.67 371.59 423.46 423.15 568.88 719.16 761.64 612.40 820.96 803.53 856.69 503.25 310.02 336.44 283.00 188.30 152.48 156.36 152.95 127.32 121.65 118.62 87.41 58.88 55.73 42.06 11.95 11.97 25.89 16.93 11.81 34.54 33.86 42.21 57.54 79.23 92.00 107.46 243.34 341.24 418.28 420.95 326.31 270.89 247.96 233.04 233.45 235.00 242.27 249.29 265.93 281.78 305.89 334.51 353.10 364.04 370.25 380.33 426.61 430.58 457.87 558.55 693.99 665.63 707.41 596.89 336.59 208.77 112.41 102.31 45.99 -5.86 -156.27 -656.71 -1243.95 -1467.00 -1569.44 -2062.70 -3406.54 -4667.91 -5107.92 -4853.44 -4448.76 -3257.72 -2321.41 -1664.62 -1902.48 -2455.55 -3347.63 -3802.96 -4039.89 -4169.56 -4164.47 -4171.36 -4147.18 -4145.65 -4132.65 -4130.64 -4118.41 -4120.21 -4104.72 -4104.72 -4093.39 -4091.60 -4091.65
-5854.64 -5854.57 -5858.07 -5860.56 -5863.16 -5863.30 -5866.91 -5866.85 -5870.15 -5867.64 -5873.36 -5876.55 -5877.57 -5881.70 -5882.92 -5884.50 -5885.20 -5884.35 -5880.72 -5865.54 -5822.95 -5776.52 -5836.75 -6197.65 -6945.13 -6063.93 -1838.59 -432.35 -255.52 -79.61 -33.73 27.51 94.17 117.81 148.22 167.00 237.24 463.55 543.31 506.57 463.87 499.00 787.25 910.19 1158.09 1340.80 1076.03 644.05 526.88 622.68 428.21 295.68 210.75 189.86 180.79 160.83 151.50 146.32 126.95 109.90 100.69 71.19 74.34 66.42 68.51 69.45 60.27 58.12 65.19 73.11 79.73 93.96 100.42 114.50 205.20 272.15 455.75 466.70 373.85 273.56 261.23 250.99 242.73 240.12 244.50 248.71 267.30 279.33 287.10 308.25 342.59 356.63 364.14 374.54 379.36 385.84 447.00 498.31 624.81 711.38 867.00 799.58 506.52 318.24 123.90 116.46 82.35 39.98 -136.89 -727.12 -1169.91 -1431.04 -1273.21 -1409.65 -2727.89 -3938.45 -4972.61 -5010.53 -4513.00 -3450.03 -2397.54 -1349.01 -1398.12 -2044.21 -2966.11 -3543.61 -3947.47 -4073.64 -4105.25 -4110.09 -4126.08 -4119.69 -4105.79 -4099.42 -4095.17 -4087.85 -4091.33 -4076.57 -4069.83 -4066.10 -4066.15
-5865.97 -5865.89 -5870.93 -5872.73 -5872.06 -5872.35 -5876.86 -5875.60 -5879.55 -5883.88 -5886.29 -5887.70 -5893.01 -5896.07 -5898.60 -5900.80 -5902.69 -5902.12 -5883.04 -5842.50 -5812.59 -5792.96 -5898.38 -6677.17 -8219.85 -4130.28 -981.61 -332.87 -188.08 -34.97 9.41 70.98 95.44 133.48 151.91 193.17 268.55 401.12 558.18 580.54 609.78 589.95 615.35 850.72 1131.74 1441.24 1472.07 934.42 777.52 685.59 381.50 314.56 295.96 251.96 227.76 205.19 173.48 158.94 147.00 130.67 123.23 113.67 102.11 95.08 109.64 100.49 95.53 97.60 95.59 85.73 89.41 110.54 116.76 132.54 183.63 236.83 353.10 397.97 342.44 276.13 265.61 252.66 242.92 242.49 245.62 251.62 259.85 267.86 281.86 282.18 319.48 344.62 352.85 370.78 376.34 391.30 425.45 466.03 559.44 756.29 933.03 819.88 666.74 430.77 214.03 145.25 138.05 105.25 63.11 -426.79 -1147.51 -1420.25 -1273.82 -1175.64 -1718.73 -3234.69 -4465.45 -5061.60 -4541.72 -3794.99 -2578.65 -1231.56 -1432.89 -1904.40 -2665.46 -3012.18 -3613.54 -3905.69 -4021.04 -4070.75 -4097.10 -4086.19 -4081.73 -4078.60 -4071.96 -4060.06 -4057.13 -4052.23 -4042.15 -4042.22 -4042.27
-5874.61 -5874.56 -5878.57 -5881.82 -5884.63 -5885.54 -5886.47 -5892.09 -5893.56 -5893.52 -5897.70 -5902.54 -5905.54 -5905.52 -5909.56 -5911.76 -5908.65 -5907.26 -5883.59 -5852.11 -5812.99 -5862.00 -6121.79 -7596.99 -4040.51 -1270.11 -412.91 -145.93 -70.83 -33.79 24.84 71.43 114.56 128.53 139.23 182.92 244.39 297.33 398.01 373.87 596.55 793.91 579.47 655.02 973.79 1441.91 1685.75 1449.13 799.81 475.37 420.60 470.72 428.83 276.29 258.04 242.28 215.68 193.63 176.45 143.14 140.78 122.81 137.59 125.73 135.11 137.13 125.46 112.70 118.10 109.97 112.90 117.66 123.03 146.40 161.54 230.89 305.41 322.77 282.15 273.54 263.43 250.12 243.85 242.21 246.95 254.08 260.18 263.31 271.66 279.57 295.29 311.95 334.12 360.74 368.28 381.70 434.72 449.60 472.83 653.03 915.65 944.49 821.18 519.13 403.66 276.87 174.69 90.94 61.84 -352.78 -1092.40 -1468.79 -1286.75 -1181.82 -1568.58 -2794.36 -4035.89 -4736.55 -4669.00 -3833.19 -2277.96 -1317.95 -1154.62 -1815.35 -2138.46 -2999.36 -3394.08 -3780.55 -3917.50 -4008.80 -4034.33 -4057.68 -4055.99 -4040.14 -4043.41 -4038.59 -4032.29 -4026.78 -4026.70 -4022.58 -4020.24
-5880.57 -5880.50 -5886.49 -5887.18 -5892.90 -5894.85 -5901.54 -5901.61 -5905.03 -5908.16 -5912.26 -5913.91 -5920.75 -5925.31 -5925.66 -5926.62 -5922.68 -5912.87 -5887.31 -5847.86 -5847.71 -5935.78 -6489.05 -7616.35 -3883.39 -664.10 -291.60 -139.75 -86.64 -33.62 25.25 80.92 125.62 131.38 133.23 221.65 281.72 415.12 373.83 438.72 665.17 880.26 755.92 890.73 906.79 1658.02 1790.67 1321.84 997.89 718.53 643.56 561.30 452.67 316.42 310.81 270.64 260.89 242.19 215.46 180.92 182.38 171.95 178.93 174.48 170.19 160.60 154.49 162.63 149.03 144.80 134.54 132.44 142.66 154.30 180.28 209.74 252.82 275.66 275.79 265.83 252.82 247.25 242.99 242.43 248.08 252.91 257.69 262.48 270.04 280.79 293.65 301.61 325.07 350.09 363.95 388.58 414.69 440.63 472.15 539.15 829.31 1007.55 966.32 681.41 547.54 305.16 164.67 135.94 74.39 -365.28 -851.13 -1462.13 -1334.27 -1169.95 -1472.07 -2562.29 -3510.72 -4523.07 -4478.70 -4185.00 -2329.26 -1323.75 -1228.09 -1586.38 -1821.75 -2961.85 -3360.50 -3715.61 -3902.52 -3900.92 -3976.62 -4001.61 -4012.76 -4025.56 -4026.00 -4021.37 -4016.35 -4009.56 -4002.37 -3999.83 -3999.88
-5884.40 -5884.33 -5890.69 -5894.64 -5899.61 -5903.37 -5908.06 -5908.68 -5912.00 -5921.23 -5924.09 -5926.93 -5930.65 -5933.99 -5938.62 -5938.57 -5932.21 -5919.27 -5908.31 -5908.34 -6023.34 -6452.19 -6372.94 -7399.58 -2247.99 -617.17 -195.34 -100.80 -61.85 11.48 56.68 94.74 125.88 149.36 171.36 222.23 391.48 498.14 374.52 469.69 593.79 824.95 1150.12 1234.41 1130.13 1538.53 1617.48 1583.90 1076.51 895.57 770.51 484.65 419.95 347.91 350.71 306.80 285.08 257.58 277.23 265.99 208.43 209.71 218.82 198.03 195.25 182.78 195.04 176.20 177.16 180.07 167.13 166.12 158.29 162.12 179.03 196.25 219.37 252.30 258.89 252.34 249.73 244.39 241.13 241.16 247.25 252.12 256.01 262.39 267.06 279.11 289.67 298.47 306.64 339.12 361.78 373.99 402.37 445.15 477.20 530.50 708.22 1048.76 996.66 622.84 468.90 395.97 215.29 168.49 87.90 -71.06 -639.71 -1116.80 -1339.14 -1288.82 -1636.56 -2464.88 -3959.66 -4414.23 -4361.23 -3557.35 -2511.75 -1243.49 -1032.84 -1306.57 -1919.21 -2559.74 -3402.10 -3570.75 -3665.87 -3826.44 -3943.89 -3953.34 -3988.25 -3997.70 -3999.77 -4000.42 -3996.52 -3990.03 -3987.18 -3980.60 -3980.66
-5886.53 -5886.46 -5894.13 -5898.54 -5905.86 -5909.04 -5913.02 -5917.71 -5922.92 -5926.51 -5930.30 -5936.01 -5942.56 -5944.23 -5949.23 -5948.25 -5946.00 -5938.51 -5942.30 -6049.91 -6300.19 -6377.53 -4690.98 -3475.87 -668.42 -478.81 -121.78 -43.55 14.36 59.33 85.87 117.05 144.44 192.01 214.72 227.30 371.95 501.48 492.07 715.66 1000.64 1025.33 1216.63 1481.98 1426.37 1581.16 1668.53 1563.36 1389.73 1067.94 874.73 633.82 546.82 403.52 383.65 360.60 352.76 382.60 329.48 392.29 315.33 334.18 276.62 256.60 251.71 233.97 240.34 209.89 200.66 206.34 186.69 185.69 171.80 167.08 179.89 203.97 225.22 235.72 241.37 243.47 239.79 237.31 240.76 243.70 248.47 251.51 259.54 261.98 267.61 279.01 282.96 293.50 306.89 328.20 346.48 365.71 382.46 428.26 450.05 465.08 612.35 920.23 984.14 788.68 590.72 413.30 142.98 98.77 49.21 -8.61 -142.65 -623.12 -1121.57 -1007.96 -1376.25 -2113.25 -3744.02 -4364.83 -4324.48 -3612.02 -2430.16 -1127.48 -948.00 -1232.38 -1722.39 -2577.30 -3111.17 -3352.37 -3521.39 -3706.37 -3883.71 -3899.55 -3935.82 -3969.83 -3979.08 -3981.01 -3979.45 -3975.37 -3970.18 -3966.62 -3966.68
-5887.70 -5888.49 -5893.49 -5904.24 -5908.03 -5912.08 -5918.96 -5923.49 -5927.27 -5934.77 -5941.75 -5948.66 -5953.04 -5958.51 -5962.30 -5956.55 -5951.27 -5950.93 -5968.35 -6057.94 -6382.35 -4929.35 -1724.21 -556.57 -406.88 -194.53 -87.10 13.60 38.69 63.08 109.98 141.58 174.93 210.23 238.04 285.34 408.43 540.12 719.72 726.55 994.81 1288.12 1479.63 1469.74 1422.52 1453.09 1509.09 1648.81 1416.63 967.33 748.60 796.53 604.90 447.60 393.42 377.78 335.63 440.75 518.12 585.98 459.50 472.27 381.02 322.22 283.77 255.72 263.28 262.09 230.96 232.40 207.67 205.10 196.98 184.20 182.54 198.24 209.82 223.67 233.33 235.45 235.48 235.05 238.27 244.15 248.56 251.47 259.81 264.91 269.13 277.12 282.33 287.48 299.06 309.55 325.98 359.22 380.30 393.35 424.46 457.05 523.35 839.01 971.58 918.21 735.05 431.51 188.78 99.39 66.04 38.39 -69.12 -278.79 -821.76 -595.80 -820.97 -2224.33 -3203.78 -4417.60 -4287.13 -3572.12 -2427.15 -960.61 -950.94 -993.73 -1639.36 -2330.51 -2734.87 -3064.66 -3551.16 -3672.73 -3684.71 -3771.41 -3879.70 -3934.66 -3964.76 -3968.71 -3965.66 -3964.60 -3960.65 -3955.97 -3956.04
-5888.91 -5888.84 -5896.52 -5904.27 -5908.90 -5918.96 -5921.44 -5928.91 -5936.51 -5944.43 -5948.50 -5954.83 -5961.98 -5966.73 -5968.48 -5956.00 -5952.02 -5950.66 -5852.33 -5791.77 -5619.28 -2205.51 -664.28 -350.08 -192.16 -102.80 -42.78 16.52 56.83 93.67 129.66 167.11 192.72 241.46 300.25 291.00 374.89 436.34 662.55 937.96 1211.92 1378.72 1521.10 1356.89 1281.22 1227.68 1383.66 1510.65 950.06 839.98 630.38 578.26 481.69 469.83 415.41 393.46 385.58 502.99 671.24 736.48 617.06 534.15 401.27 332.12 305.54 272.51 273.44 271.48 269.34 256.08 243.40 221.56 209.10 206.28 199.46 199.70 208.52 221.33 227.35 230.56 230.47 235.94 239.91 242.12 248.45 254.28 259.45 266.13 270.03 276.30 284.55 292.47 299.41 306.59 317.07 338.75 371.16 388.95 416.05 459.35 492.97 646.54 849.16 925.02 710.67 371.83 220.39 140.30 97.78 60.15 -33.32 -363.79 -643.66 -792.49 -1007.04 -1976.22 -3564.98 -4341.86 -4146.01 -3584.09 -2053.03 -1125.81 -682.63 -873.04 -1065.68 -1943.03 -2526.15 -2804.88 -3171.61 -3340.92 -3534.10 -3663.94 -3868.50 -3940.34 -3961.95 -3963.74 -3959.19 -3957.18 -3954.24 -3951.90 -3951.97
-5891.05 -5890.97 -5898.59 -5905.33 -5912.33 -5921.75 -5927.41 -5934.73 -5940.99 -5949.75 -5955.71 -5962.43 -5970.02 -5967.57 -5949.92 -5922.46 -5815.87 -5728.14 -5017.45 -4335.32 -3416.68 -1552.60 -527.27 -337.89 -202.94 -45.09 8.62 52.97 92.14 112.77 164.44 179.78 222.28 249.79 389.68 498.74 457.15 352.92 527.78 655.52 1197.40 1295.79 1411.81 1276.89 1142.94 1143.25 1286.26 1388.23 1057.20 906.40 787.19 695.95 532.45 601.59 479.05 497.46 502.53 563.35 722.73 664.55 576.85 468.61 381.28 343.11 340.78 309.76 310.51 311.84 293.46 276.41 261.79 252.02 231.73 225.61 216.06 206.83 211.50 215.11 222.71 226.07 228.13 233.27 237.91 242.75 249.53 254.68 259.22 267.34 273.43 281.50 285.65 295.42 303.34 314.36 322.01 329.08 359.00 368.22 387.77 421.25 441.98 505.76 695.69 780.33 561.59 326.70 195.12 152.52 94.85 65.67 -38.75 -352.52 -713.59 -1078.71 -1213.62 -2746.80 -4042.78 -4286.85 -4023.32 -3545.92 -1902.95 -946.25 -599.06 -752.25 -1014.17 -1585.99 -2178.82 -2366.58 -2864.34 -3279.55 -3465.72 -3513.61 -3820.23 -3942.07 -3958.35 -3958.49 -3957.39 -3953.69 -3952.03 -3949.78 -3949.85
-5895.03 -5895.56 -5901.76 -5910.95 -5919.68 -5927.62 -5933.98 -5943.29 -5947.69 -5956.61 -5963.35 -5961.81 -5949.30 -5919.45 -5878.48 -5634.92 -5354.86 -4579.82 -3651.27 -2954.04 -2940.71 -1004.55 -353.14 -243.83 -69.76 2.83 34.63 72.42 99.02 145.70 189.83 244.04 249.72 256.39 362.06 405.22 484.69 532.62 631.41 818.99 1156.31 1189.03 1319.03 1296.57 1192.56 1072.91 1163.21 1273.54 1178.66 1097.07 926.53 833.55 666.74 759.37 613.82 502.13 566.87 645.07 636.58 526.13 474.25 435.50 410.38 373.20 355.36 343.63 345.18 331.97 312.94 308.75 281.64 264.42 255.71 249.75 234.89 219.39 218.07 219.70 226.06 227.04 230.11 235.56 239.82 244.65 251.39 257.62 262.69 272.49 279.76 285.54 292.75 298.29 304.89 313.64 320.12 325.43 335.27 349.54 369.88 385.67 396.92 377.40 383.52 439.46 430.74 285.48 199.79 142.20 102.22 61.98 25.75 -178.73 -656.99 -1095.32 -1509.30 -2687.76 -4020.19 -4299.08 -3963.48 -3189.17 -1840.09 -884.21 -641.36 -775.86 -1102.58 -1481.88 -1818.64 -2343.19 -2808.90 -3197.34 -3308.73 -3516.35 -3788.61 -3905.06 -3951.19 -3958.39 -3958.32 -3955.73 -3955.18 -3954.85 -3954.93
-5902.75 -5902.67 -5912.15 -5918.95 -5924.33 -5934.88 -5944.18 -5951.97 -5963.51 -5965.81 -5956.42 -5923.21 -5873.07 -5662.55 -5251.49 -4815.98 -4191.00 -3737.49 -2808.56 -1771.19 -735.22 -324.13 -175.43 -101.68 -6.09 17.36 50.60 96.25 121.57 163.25 266.93 345.89 309.11 391.20 422.73 438.72 491.53 558.35 618.96 711.19 720.74 876.28 1113.64 1224.00 1149.39 1036.73 1115.04 1114.17 1138.36 1134.96 945.63 809.51 829.23 777.63 568.85 511.02 543.92 675.63 640.12 550.98 488.89 465.63 432.25 398.37 376.85 373.60 357.93 356.38 348.83 327.55 309.62 303.63 294.46 262.62 249.04 229.54 223.96 228.39 228.97 230.52 234.79 236.99 242.25 248.29 253.20 259.48 268.72 273.19 280.57 291.18 297.16 305.27 310.83 316.82 320.27 322.53 324.25 332.48 365.50 371.82 369.31 350.67 326.64 294.58 323.93 224.47 162.09 142.67 103.26 56.97 8.78 -169.19 -490.63 -955.52 -1593.30 -1912.35 -3488.15 -4111.83 -3817.25 -2945.62 -2081.35 -833.45 -675.86 -800.61 -1187.08 -1508.47 -1904.15 -2373.04 -2664.36 -2988.13 -3304.12 -3467.07 -3800.75 -3903.43 -3950.65 -3961.99 -3962.57 -3961.04 -3960.38 -3964.08 -3965.01
-5916.77 -5916.68 -5925.45 -5932.31 -5937.61 -5946.91 -5958.67 -5967.16 -5972.99 -5963.84 -5926.38 -5795.85 -5436.38 -5263.23 -4765.50 -4113.28 -3643.55 -2764.76 -1777.63 -1199.40 -398.47 -294.20 -127.54 -56.84 -7.98 38.56 59.93 101.39 144.83 197.19 315.52 390.01 412.77 416.21 658.05 649.34 533.00 512.71 522.43 715.29 839.81 1053.24 1266.05 1222.30 1114.38 991.88 996.92 1048.81 1036.30 1007.36 1019.25 959.18 947.88 692.71 598.06 711.11 649.18 699.52 680.57 577.18 546.39 550.92 466.41 437.93 421.06 401.05 405.24 386.75 385.57 363.43 341.75 324.85 313.27 279.53 267.59 245.67 231.96 229.18 231.62 233.21 236.55 240.81 245.42 251.18 256.03 261.72 269.56 275.94 282.21 295.46 304.36 312.54 319.25 323.04 328.04 327.16 327.57 328.03 335.46 342.84 332.64 324.28 318.58 280.99 248.85 188.52 152.70 120.53 97.94 55.48 -18.80 -111.85 -750.34 -1224.38 -1928.13 -2922.38 -4173.93 -3793.14 -3518.07 -2662.25 -1395.80 -724.98 -592.43 -847.84 -1168.97 -1586.15 -1999.43 -2391.33 -2644.54 -2879.91 -3209.22 -3483.61 -3691.85 -3895.25 -3955.93 -3966.93 -3968.70 -3967.73 -3974.73 -3979.14 -3979.23
-5939.49 -5939.39 -5945.43 -5948.58 -5960.54 -5968.35 -5974.90 -5980.36 -5980.40 -5986.93 -5908.15 -5638.06 -5080.11 -4379.37 -3636.63 -3473.13 -3054.18 -2505.33 -1722.37 -980.63 -393.35 -272.83 -165.52 -46.56 -14.56 20.89 50.60 107.88 177.80 183.27 232.07 350.03 465.24 610.92 773.67 825.93 763.66 642.70 631.07 826.66 1003.94 1242.72 1297.99 1157.26 1102.65 1011.84 944.37 969.11 964.35 940.49 969.36 970.90 954.57 809.84 735.15 830.65 796.77 743.01 773.02 653.90 589.55 623.18 546.54 468.97 443.41 429.89 434.86 407.21 398.74 389.89 360.75 360.32 316.08 283.39 271.98 258.53 248.96 237.61 237.69 241.14 245.22 247.86 249.30 251.83 261.73 265.56 272.11 280.82 292.30 301.96 313.78 323.12 332.21 336.55 337.18 342.50 340.51 341.00 331.37 326.50 323.64 313.52 292.78 248.48 222.97 198.23 152.21 110.77 73.30 52.30 1.41 -279.17 -1216.46 -1448.28 -2120.80 -3738.62 -3873.57 -3546.62 -3094.66 -2231.68 -1173.86 -572.23 -582.49 -930.11 -1222.23 -1575.52 -1945.02 -2253.85 -2514.17 -2918.92 -3220.12 -3384.88 -3701.08 -3882.35 -3967.31 -3980.10 -3982.15 -3984.13 -3992.21 -3996.77 -3996.86
-5967.72 -5967.34 -5970.93 -5974.10 -5981.05 -5985.48 -6021.50 -6029.85 -6030.56 -6040.87 -5854.07 -5572.45 -4739.39 -4070.71 -3593.69 -3440.10 -3171.92 -2697.11 -1948.04 -997.99 -371.29 -267.89 -217.37 -57.65 -10.65 4.74 45.50 175.38 357.08 223.25 277.54 330.17 389.82 551.06 722.26 829.23 912.70 951.86 749.14 841.52 1092.91 1245.53 1179.29 1002.69 942.86 939.00 898.35 912.58 915.90 888.15 883.93 939.06 938.50 891.98 924.67 1067.70 1112.17 906.27 744.01 619.77 628.01 825.38 594.52 536.25 491.36 467.86 459.04 446.09 426.47 403.72 373.09 363.48 325.95 298.89 276.74 263.93 257.56 250.14 243.89 245.84 249.32 250.14 253.44 258.25 265.29 270.99 276.00 287.02 297.03 309.52 317.09 331.83 341.69 350.31 351.69 353.16 355.85 345.07 334.18 317.08 309.97 279.30 247.29 221.12 207.95 159.33 135.36 118.92 76.42 49.95 -148.61 -353.71 -1165.64 -1807.03 -2432.70 -3494.13 -3540.69 -3319.42 -2417.41 -1519.06 -709.75 -499.34 -563.10 -848.40 -1142.86 -1570.24 -1930.48 -2256.46 -2544.34 -2786.73 -3317.79 -3599.11 -3820.58 -3932.04 -3985.52 -3993.26 -3990.96 -4001.15 -4012.30 -4015.95 -4016.05
-6016.22 -6016.10 -6025.26 -6023.58 -6023.97 -6029.73 -6034.87 -6028.82 -6051.70 -5859.72 -5587.02 -5181.12 -4680.02 -4035.38 -3783.60 -3663.99 -3642.52 -3197.07 -1590.05 -661.10 -364.40 -294.15 -233.65 -42.48 -9.62 -2.51 57.08 227.71 550.82 450.75 453.59 474.28 468.63 408.19 508.27 672.70 929.54 1149.73 1082.01 1068.05 1179.00 1058.25 969.81 985.06 885.52 896.37 864.70 851.29 846.04 852.95 848.20 910.36 938.37 939.61 1043.51 1112.49 1194.97 1097.22 908.03 793.35 690.55 838.90 764.53 624.63 531.22 479.42 477.67 474.04 458.35 424.10 399.14 381.29 341.33 321.13 293.73 273.97 264.57 257.17 251.17 250.90 251.46 254.02 259.20 266.37 270.16 274.20 285.02 296.39 308.30 316.80 327.64 341.53 355.47 373.83 375.89 374.72 368.30 356.28 345.02 307.91 291.70 250.92 222.01 198.00 152.51 126.23 116.76 76.46 35.82 -38.10 -203.96 -407.77 -1669.78 -2363.32 -3162.90 -3274.74 -3232.49 -3097.04 -2011.33 -1054.68 -558.26 -420.72 -675.74 -945.38 -1136.06 -1499.65 -1705.39 -2076.14 -2355.39 -2821.37 -3460.53 -3752.72 -3908.77 -3991.07 -3999.52 -4001.50 -4008.76 -4016.66 -4030.09 -4036.28 -4036.38
-6115.51 -6114.23 -6082.05 -5997.99 -5983.30 -5980.03 -5907.53 -5703.93 -5595.27 -5381.38 -4984.75 -4516.51 -4448.58 -4173.69 -4153.44 -3963.41 -3975.82 -3614.08 -2154.14 -864.95 -358.09 -292.21 -195.21 -16.05 -10.47 17.12 67.78 209.12 411.12 455.25 518.81 622.39 667.85 713.67 706.93 698.78 933.53 1139.74 1100.69 1132.58 1154.61 1102.85 956.10 891.85 857.84 859.11 810.70 819.76 831.16 796.51 813.72 862.39 900.00 920.11 992.95 967.69 1143.34 1154.30 1058.50 966.48 770.60 850.07 891.25 694.49 619.36 505.96 494.57 500.49 478.35 457.92 424.74 390.86 365.13 339.72 302.72 291.23 277.41 270.61 261.19 260.45 259.46 259.95 263.41 267.25 277.01 283.90 297.94 302.97 314.97 328.61 339.80 353.51 366.78 388.19 393.56 388.14 376.64 359.99 342.48 309.23 290.69 245.39 213.09 164.79 131.58 105.98 82.19 52.96 16.53 -78.49 -369.66 -943.58 -1926.34 -2810.46 -3202.08 -3353.25 -2950.60 -2589.22 -1514.11 -835.28 -410.22 -492.06 -664.98 -947.93 -1199.36 -1501.44 -1810.26 -2177.27 -2452.37 -2959.71 -3571.63 -3803.71 -3922.00 -3976.93 -4013.16 -4019.44 -4025.11 -4036.66 -4043.92 -4057.82 -4057.92
-5965.09 -5965.20 -5742.18 -5693.02 -5608.60 -5388.08 -5249.14 -5002.31 -4782.93 -4630.42 -4594.61 -4426.09 -4350.93 -4333.09 -4326.96 -4307.59 -4329.26 -3748.36 -2085.68 -1078.61 -363.03 -298.02 -179.27 -45.88 -1.96 37.58 49.46 96.44 341.69 375.83 360.83 417.77 588.56 744.00 888.46 1045.38 1157.43 1119.45 841.51 904.01 983.07 1044.25 1010.74 914.00 828.24 772.20 781.11 783.75 789.26 778.50 790.17 801.11 857.76 882.07 897.24 917.97 1017.91 1199.93 1183.24 1057.78 949.05 937.88 930.92 785.75 641.71 542.16 525.03 540.97 506.01 488.34 460.05 411.59 385.20 358.26 308.66 295.90 287.04 278.41 268.84 266.87 263.47 265.05 268.72 272.82 284.65 292.67 301.86 314.89 329.43 337.22 346.24 361.63 377.86 392.90 396.02 391.61 381.10 360.02 336.07 291.71 263.37 229.13 191.83 152.40 120.08 95.87 66.27 21.51 -28.79 -135.47 -713.85 -1177.40 -2361.22 -2992.71 -3149.66 -3341.24 -2864.56 -1984.98 -1256.61 -653.09 -357.81 -518.03 -750.03 -1029.66 -1180.02 -1421.19 -1853.74 -2291.78 -2727.17 -3304.28 -3448.35 -3707.76 -3884.69 -3994.01 -4027.47 -4036.15 -4047.79 -4052.89 -4072.80 -4076.11 -4076.21
-5082.95 -5084.14 -5102.04 -4936.60 -4961.00 -4636.76 -4599.66 -4486.35 -4472.10 -4432.12 -4412.11 -4398.64 -4398.71 -4385.98 -4371.13 -4389.36 -4500.37 -4438.64 -2186.24 -628.50 -358.21 -270.58 -160.26 -62.73 -6.88 42.42 52.86 136.66 210.39 220.61 230.80 437.17 562.05 595.57 794.28 1070.46 1238.45 1067.42 770.28 739.11 853.31 964.77 965.97 845.56 764.35 746.62 736.21 741.22 748.47 763.18 772.48 779.58 802.78 832.87 846.80 910.22 942.44 1125.76 1197.26 1170.11 1188.23 1111.75 942.78 677.10 652.62 631.45 575.34 554.77 510.65 498.65 479.54 440.05 403.52 374.62 336.38 311.68 302.23 292.20 278.02 270.91 269.69 272.23 276.37 281.93 288.73 299.93 307.64 324.18 329.98 348.30 358.29 375.14 389.44 395.15 393.69 385.05 374.85 343.49 313.08 285.55 248.81 214.07 179.35 134.55 105.50 77.16 53.26 -16.33 -96.47 -581.23 -996.35 -1425.90 -2402.68 -3677.70 -3522.03 -3641.69 -2891.92 -1739.53 -1008.03 -421.10 -330.35 -403.43 -602.49 -824.26 -950.66 -1334.09 -1865.46 -2463.61 -2836.41 -3330.56 -3568.07 -3650.87 -3916.02 -4018.12 -4048.55 -4055.15 -4062.78 -4075.04 -4084.57 -4095.45 -4095.56
-4420.04 -4421.15 -4503.45 -4570.25 -4496.50 -4451.42 -4419.89 -4406.94 -4414.39 -4422.95 -4419.86 -4420.74 -4412.83 -4405.97 -4396.31 -4440.63 -4522.04 -5152.78 -2675.61 -715.35 -286.80 -204.34 -119.86 -54.19 -0.07 46.04 51.37 70.48 115.56 260.94 346.08 549.38 707.94 834.90 932.64 905.24 898.97 959.46 831.34 643.16 836.60 945.22 969.51 744.92 703.14 705.03 699.20 712.62 724.93 739.76 759.46 767.16 770.63 789.39 828.08 855.37 931.32 994.54 1091.75 1136.31 1353.77 1291.87 1097.66 820.98 826.66 736.35 618.71 571.48 517.98 499.61 470.93 446.86 416.79 378.15 359.23 329.82 311.73 297.26 287.56 275.37 275.44 276.15 279.78 286.73 298.34 303.51 313.17 328.97 337.93 347.55 365.13 377.93 388.53 389.70 388.73 384.96 361.58 349.72 310.09 268.86 245.51 201.58 162.55 135.84 92.76 68.18 28.64 -16.65 -120.88 -711.62 -1013.20 -1469.19 -2245.61 -4820.43 -5297.21 -4508.60 -2849.88 -1329.66 -617.01 -454.22 -337.15 -438.69 -548.56 -732.88 -877.31 -1415.19 -1881.30 -2544.78 -2949.94 -3199.27 -3487.15 -3798.98 -3980.59 -4050.60 -4066.95 -4075.41 -4081.86 -4086.29 -4104.81 -4111.71 -4111.83
-4392.70 -4392.60 -4424.29 -4430.71 -4435.57 -4435.93 -4434.12 -4436.85 -4437.53 -4434.71 -4434.40 -4435.99 -4433.67 -4424.92 -4416.21 -4523.29 -4849.63 -4512.19 -2436.00 -345.12 -313.82 -240.95 -157.26 -73.61 -11.65 35.56 52.40 81.12 157.12 239.13 411.30 482.27 562.70 634.83 900.55 762.03 713.81 817.02 788.47 713.34 801.17 887.60 899.47 687.07 627.55 636.83 662.01 687.81 675.41 707.80 737.28 745.92 755.00 773.69 778.78 820.39 848.69 889.62 955.35 1133.21 1421.37 1419.43 1131.82 1100.22 934.37 778.08 696.05 670.97 568.17 511.38 475.76 455.99 425.44 391.53 372.87 338.69 320.52 299.83 292.75 282.86 280.10 280.87 287.93 296.02 301.46 306.75 322.44 332.85 341.21 355.19 358.28 383.53 386.88 385.19 382.53 359.24 351.60 324.79 278.05 255.00 225.45 182.96 152.95 129.61 89.20 53.27 33.19 -3.66 -197.86 -514.15 -1293.56 -1909.41 -3292.57 -5383.75 -5599.05 -4274.06 -2067.80 -1049.60 -529.84 -404.92 -374.54 -466.01 -624.17 -787.19 -1034.03 -1456.66 -2168.35 -2577.90 -3150.16 -3355.79 -3732.21 -3928.58 -3995.19 -4065.77 -4084.37 -4092.31 -4096.01 -4111.20 -4118.91 -4129.57 -4129.72
-4453.28 -4452.86 -4459.37 -4460.26 -4463.29 -4464.33 -4461.21 -4454.32 -4455.81 -4454.71 -4451.06 -4450.32 -4449.28 -4435.60 -4432.30 -4516.46 -4906.94 -4979.74 -1290.77 -423.67 -329.21 -257.57 -173.27 -49.33 -13.07 18.56 51.34 55.70 60.67 127.41 297.74 387.24 351.79 547.25 673.33 492.81 558.66 676.40 679.77 606.01 622.25 667.89 646.72 617.35 606.94 617.10 650.00 655.89 665.70 675.05 687.66 695.14 728.50 760.98 774.88 791.05 838.51 938.66 1078.52 1237.51 1321.07 1409.89 1238.87 952.92 800.14 754.38 785.65 714.21 621.45 547.46 517.92 464.16 431.18 405.41 363.36 339.13 324.24 308.55 296.63 290.95 289.18 288.04 293.91 302.72 312.37 321.10 333.16 338.03 349.13 356.65 360.46 377.25 380.96 377.11 373.52 344.87 332.51 297.67 270.53 236.64 198.00 176.20 137.23 108.40 83.81 50.33 19.51 -72.00 -193.80 -851.51 -1443.21 -2177.56 -4749.22 -5869.73 -5328.43 -3990.91 -2265.90 -899.45 -530.35 -398.48 -445.13 -509.53 -687.19 -941.71 -1284.84 -1596.75 -2388.83 -2759.77 -3155.92 -3553.90 -3769.91 -3953.85 -4037.08 -4078.26 -4103.09 -4108.99 -4113.69 -4129.08 -4138.56 -4147.00 -4147.19
-4474.27 -4474.21 -4476.66 -4481.39 -4479.27 -4477.50 -4475.45 -4483.28 -4474.50 -4472.54 -4474.52 -4467.62 -4462.33 -4451.01 -4444.29 -4506.89 -4614.75 -3915.51 -1375.63 -716.27 -400.70 -299.05 -204.58 -72.78 -39.59 6.13 34.95 53.70 79.66 117.23 225.20 174.02 241.24 522.27 603.57 465.11 376.87 427.89 569.32 539.79 510.15 566.11 554.74 577.64 571.44 569.73 615.56 615.06 624.28 645.44 666.50 680.06 700.36 749.90 768.42 775.47 801.86 930.67 997.30 1195.13 1267.52 1305.09 1323.39 1075.70 1023.24 921.59 985.07 870.87 641.92 676.62 604.16 467.04 444.52 404.67 364.03 347.19 337.88 320.39 305.14 295.84 294.27 294.54 298.07 305.10 322.01 330.48 336.53 340.35 350.93 358.61 360.82 368.64 370.95 366.21 348.96 333.35 312.58 277.83 253.15 205.69 179.89 152.74 123.94 86.78 65.11 31.08 -30.26 -92.59 -373.55 -836.81 -1365.53 -3817.40 -5526.68 -5965.70 -5219.39 -3561.57 -1929.13 -647.65 -447.73 -387.43 -435.07 -541.20 -769.28 -962.32 -1414.49 -1742.48 -2114.93 -2765.01 -3263.77 -3547.16 -3707.14 -3932.94 -4025.12 -4077.77 -4124.34 -4127.06 -4131.77 -4142.06 -4152.17 -4162.89 -4163.01
-4497.56 -4497.79 -4499.51 -4499.02 -4503.25 -4497.75 -4493.59 -4494.18 -4485.14 -4482.16 -4489.47 -4488.44 -4478.77 -4465.29 -4455.56 -4503.07 -4757.53 -4735.07 -2886.03 -868.87 -353.73 -276.42 -191.33 -165.85 -109.04 -32.63 12.02 48.93 57.37 76.74 149.96 193.80 300.10 435.75 586.39 421.56 348.61 418.60 522.01 536.40 452.39 467.61 493.12 534.08 520.90 535.86 548.76 565.20 596.37 619.00 628.87 657.79 702.19 744.05 750.32 769.84 812.21 842.89 962.24 1043.00 1249.31 1367.94 1590.07 1402.03 1273.61 1239.13 1172.63 1034.70 791.39 890.52 689.21 538.81 447.35 413.95 388.09 348.36 343.89 330.00 308.17 298.23 295.97 297.89 301.48 309.96 328.94 333.42 339.92 348.62 354.18 357.76 358.78 358.24 356.94 349.00 337.64 312.18 283.53 257.26 223.38 182.20 167.94 122.68 116.08 78.66 50.48 0.54 -45.79 -226.38 -404.52 -894.95 -1231.73 -3161.48 -5035.95 -5378.49 -5440.55 -4372.11 -1363.00 -910.27 -474.10 -404.63 -439.95 -553.43 -775.56 -1018.21 -1469.04 -1898.19 -2322.38 -2970.24 -3418.15 -3592.02 -3710.14 -3879.56 -3994.40 -4107.34 -4132.61 -4140.83 -4142.56 -4160.05 -4167.70 -4177.19 -4177.22
-4517.37 -4517.32 -4517.49 -4518.35 -4519.32 -4519.82 -4517.96 -4516.06 -4515.29 -4509.78 -4500.72 -4494.97 -4483.65 -4479.31 -4468.54 -4495.54 -4525.69 -4250.32 -2525.68 -472.40 -379.93 -284.49 -250.23 -211.14 -160.10 -55.13 -11.08 18.93 47.25 71.97 92.78 135.84 202.50 233.54 331.58 254.31 281.87 373.83 400.24 413.58 433.44 447.88 456.36 467.88 510.58 521.20 524.02 538.98 569.14 591.95 610.80 630.66 665.73 677.11 708.05 751.64 809.85 868.56 949.53 989.75 1059.02 1186.63 1241.53 1276.48 1196.82 1117.77 1091.96 1067.68 1006.11 905.66 694.54 581.22 463.10 422.92 396.09 371.14 349.11 331.23 312.69 297.06 296.75 301.39 305.98 314.65 327.32 336.00 348.83 352.31 353.11 352.58 352.27 352.47 347.78 338.95 315.30 272.81 257.02 254.22 210.64 181.86 150.65 122.00 90.13 59.75 8.09 -44.03 -192.68 -377.05 -555.28 -912.72 -1112.98 -3604.87 -4488.39 -5499.76 -5552.95 -4439.93 -2577.35 -1439.63 -702.06 -489.04 -502.78 -574.37 -825.28 -1141.15 -1593.03 -1969.75 -2556.28 -3026.57 -3449.37 -3580.99 -3783.72 -3877.11 -4000.72 -4109.54 -4146.73 -4152.31 -4158.59 -4169.85 -4179.54 -4190.18 -4190.24
-4532.52 -4532.45 -4532.09 -4534.83 -4532.49 -4532.18 -4527.67 -4524.28 -4523.16 -4519.21 -4515.72 -4508.53 -4502.74 -4492.31 -4477.82 -4476.60 -4429.91 -4139.84 -2707.22 -690.87 -410.53 -354.35 -261.36 -236.80 -178.99 -84.66 -30.95 -14.70 33.71 59.34 74.07 100.94 131.88 169.71 223.53 232.44 240.96 290.66 322.08 336.27 378.83 396.49 428.62 434.65 486.06 491.57 508.31 520.49 519.95 554.44 587.65 622.43 656.60 664.29 698.58 736.75 804.70 886.39 989.46 991.76 921.75 1054.22 1053.17 1016.20 1073.63 955.19 866.77 963.33 944.54 831.49 779.07 664.72 495.64 449.60 422.15 380.58 349.34 321.93 310.81 304.09 296.32 299.20 307.73 311.21 327.44 334.22 342.99 350.33 351.07 347.62 342.67 341.25 331.48 322.40 301.58 268.39 246.70 219.80 202.31 173.20 139.30 100.81 72.77 39.45 -3.90 -50.27 -292.71 -403.55 -665.79 -969.33 -1748.07 -3840.70 -5553.44 -5710.05 -5589.27 -4950.20 -3713.99 -2204.61 -1673.76 -565.06 -640.82 -689.95 -896.34 -1267.20 -1570.33 -2151.11 -2744.61 -3213.63 -3460.51 -3660.56 -3871.28 -4003.95 -4024.48 -4103.62 -4144.10 -4171.05 -4173.11 -4183.89 -4194.16 -4203.75 -4203.82
-4545.17 -4545.10 -4545.29 -4548.07 -4545.93 -4543.32 -4541.03 -4539.59 -4536.99 -4532.77 -4526.38 -4521.78 -4511.54 -4501.03 -4493.16 -4471.64 -4393.30 -4092.10 -2847.39 -1095.41 -437.71 -371.85 -284.14 -234.38 -172.17 -89.59 -52.59 -14.77 -5.03 30.93 59.78 83.94 131.52 140.97 181.53 210.70 239.45 262.20 298.42 324.37 354.54 357.36 370.03 390.53 442.45 446.17 473.57 477.97 497.90 532.26 559.99 574.41 632.45 657.38 701.02 737.76 812.40 894.91 963.88 908.86 856.85 930.64 958.69 891.84 1015.84 988.27 888.65 841.39 831.33 691.23 721.69 715.65 568.83 481.91 436.35 367.70 339.92 323.81 309.15 300.30 295.84 300.05 304.22 307.88 318.58 330.20 335.05 343.04 346.26 338.31 331.76 327.86 317.66 302.71 287.15 264.33 242.51 191.32 170.70 145.48 122.74 88.32 63.62 37.23 -11.02 -87.11 -268.61 -483.73 -699.20 -1643.74 -2686.25 -4011.96 -5492.92 -5680.85 -5639.30 -5479.59 -4978.89 -3205.94 -2187.14 -1306.86 -759.15 -841.13 -1052.98 -1486.74 -1911.30 -2444.11 -3045.11 -3439.57 -3587.78 -3795.83 -3997.63 -4044.26 -4096.66 -4145.52 -4176.31 -4181.48 -4183.67 -4192.95 -4204.79 -4215.54 -4215.62
-4556.83 -4556.75 -4557.88 -4555.94 -4560.41 -4556.56 -4554.16 -4550.50 -4547.57 -4542.00 -4538.47 -4529.93 -4521.25 -4514.79 -4500.76 -4480.75 -4422.07 -4356.33 -3388.05 -2018.35 -708.22 -352.05 -315.52 -265.89 -183.76 -141.80 -77.57 -26.95 -4.70 23.61 52.34 85.83 122.43 144.99 177.06 199.73 225.18 226.99 283.28 321.36 334.46 348.65 355.27 365.41 394.71 417.57 438.68 445.47 478.05 497.27 534.55 560.50 640.30 704.13 778.59 841.98 875.18 979.80 971.99 845.01 791.34 835.96 796.42 796.45 816.73 815.55 705.75 731.35 713.34 620.68 621.89 624.36 572.08 476.08 426.46 364.52 340.43 323.69 310.57 301.50 295.30 294.40 295.46 301.54 312.10 325.19 330.99 334.87 337.08 329.46 323.69 304.70 299.43 272.19 256.72 217.40 205.81 172.99 151.78 134.66 110.83 71.10 52.52 25.24 -25.78 -113.09 -280.66 -581.59 -744.96 -1627.31 -3334.14 -5287.75 -5475.62 -5647.01 -5641.25 -5602.09 -5487.59 -4886.13 -3315.63 -2215.94 -1081.13 -1048.38 -1217.59 -1471.34 -2178.53 -2862.25 -3028.16 -3657.72 -3773.67 -3875.38 -4063.65 -4134.87 -4165.57 -4176.97 -4184.65 -4188.34 -4196.85 -4205.27 -4216.81 -4226.75 -4226.83
-4568.00 -4568.36 -4569.41 -4569.24 -4568.50 -4569.54 -4564.25 -4560.84 -4561.16 -4549.08 -4542.75 -4536.78 -4529.96 -4523.03 -4503.35 -4493.05 -4450.38 -4396.63 -3969.72 -2997.59 -1925.26 -415.05 -374.96 -303.09 -219.67 -182.79 -82.07 -42.96 -22.24 1.39 43.60 66.21 109.08 125.12 144.43 181.30 215.14 225.49 245.62 283.76 305.44 319.59 334.50 353.35 351.69 377.61 426.78 432.63 454.39 473.11 508.44 595.71 636.02 684.33 764.84 934.14 1074.01 1076.12 975.82 797.00 740.15 744.45 729.36 757.67 729.21 706.40 660.85 660.04 635.21 593.56 533.65 545.30 504.51 442.52 395.64 366.07 340.06 323.68 301.29 292.19 289.50 289.68 291.06 295.11 298.98 306.47 327.58 332.83 336.83 323.41 309.48 285.64 271.36 256.19 224.96 201.36 180.27 151.52 128.74 108.70 91.66 65.31 47.98 23.60 -35.97 -121.43 -360.72 -741.42 -1087.95 -2487.81 -4424.97 -5316.48 -5630.86 -5627.97 -5638.30 -5633.88 -5526.05 -5290.31 -3953.83 -2369.03 -1271.22 -1181.58 -1421.92 -1735.47 -2196.75 -2739.18 -3136.83 -3670.00 -3944.18 -4067.00 -4111.45 -4155.63 -4179.62 -4190.54 -4195.74 -4204.20 -4214.71 -4218.79 -4224.92 -4234.91 -4234.99
-4578.78 -4578.70 -4579.79 -4580.90 -4581.11 -4578.72 -4577.90 -4571.16 -4568.66 -4565.96 -4558.21 -4549.07 -4535.22 -4530.21 -4519.03 -4508.69 -4497.10 -4501.61 -4548.11 -4621.87 -2723.62 -1011.93 -487.17 -356.72 -229.15 -181.83 -147.96 -127.11 -42.72 -14.28 27.44 55.61 76.89 116.45 133.03 157.30 188.31 211.05 226.15 245.09 263.62 285.64 297.39 322.77 333.86 362.34 392.63 408.66 405.64 454.11 530.83 680.12 761.40 751.11 714.21 837.44 1095.90 1064.97 941.39 889.68 795.02 699.61 684.22 694.62 643.02 636.38 622.12 601.46 564.22 540.53 507.14 480.55 471.78 431.29 392.00 365.86 351.99 320.00 301.75 285.16 277.24 274.34 273.52 276.45 285.03 298.02 320.43 330.67 334.62 317.45 298.58 275.86 246.62 224.43 207.00 173.28 160.45 141.95 108.91 82.38 68.85 52.37 28.82 -3.92 -95.74 -177.99 -471.49 -908.13 -1766.38 -2876.61 -4649.33 -5331.67 -5600.62 -5620.70 -5632.88 -5639.18 -5595.87 -5398.23 -4066.79 -2884.21 -1417.21 -1317.23 -1585.02 -2046.04 -2454.75 -3057.11 -3545.20 -3798.20 -4049.44 -4111.03 -4149.43 -4179.13 -4206.89 -4208.59 -4212.65 -4213.57 -4221.63 -4227.73 -4233.47 -4245.07 -4245.15
-4589.20 -4589.73 -4590.02 -4590.58 -4588.52 -4586.72 -4585.50 -4583.57 -4578.73 -4572.90 -4564.35 -4558.93 -4550.27 -4543.41 -4532.71 -4516.30 -4499.38 -4514.06 -4558.80 -4702.49 -4594.11 -3120.64 -524.54 -367.05 -297.84 -248.90 -214.31 -153.52 -133.55 -47.90 24.64 45.05 65.11 92.12 108.05 132.79 174.31 188.09 188.03 220.61 228.52 243.08 260.78 298.86 312.32 345.59 368.88 377.09 417.16 493.46 574.48 657.10 861.84 840.84 877.96 1006.74 1194.83 1202.54 1035.54 855.88 711.02 652.90 633.18 635.94 614.58 578.38 577.05 574.09 546.74 499.12 477.12 459.33 443.16 418.53 392.39 360.76 349.75 315.28 297.63 280.22 270.73 262.62 257.50 262.01 264.43 276.31 291.86 307.40 319.96 299.58 263.79 245.37 221.22 208.06 185.92 155.43 116.31 102.36 82.99 71.69 60.25 36.16 20.10 -21.72 -99.58 -234.32 -616.90 -912.44 -1203.57 -2752.27 -4841.57 -5354.02 -5573.57 -5620.95 -5635.96 -5643.07 -5599.53 -5452.50 -4173.68 -2845.71 -1600.75 -1462.27 -1717.68 -2239.22 -2913.73 -3364.08 -3542.71 -3802.67 -4033.12 -4126.52 -4177.91 -4205.73 -4215.33 -4215.42 -4222.04 -4224.24 -4228.95 -4239.59 -4245.08 -4254.66 -4254.74
-4599.22 -4599.15 -4599.11 -4601.73 -4603.69 -4602.87 -4595.63 -4594.26 -4589.65 -4583.40 -4576.67 -4568.77 -4562.93 -4550.42 -4544.35 -4529.96 -4512.95 -4504.92 -4516.07 -4576.20 -4501.11 -3203.42 -634.87 -429.49 -357.38 -306.83 -276.51 -240.98 -187.15 -96.18 0.60 27.63 47.40 56.81 66.80 94.19 140.55 160.45 177.71 204.94 213.30 211.80 225.86 264.13 265.86 301.43 323.93 354.63 426.44 478.93 527.12 566.20 831.36 915.18 1114.06 1249.09 1221.10 1215.06 1050.47 865.47 779.98 648.15 596.37 577.00 574.74 566.13 556.09 557.36 502.46 476.33 466.94 440.26 418.55 392.48 380.26 349.02 326.37 289.22 278.75 266.44 261.65 250.69 247.89 240.47 257.49 260.68 270.58 285.25 297.29 286.76 262.07 235.89 199.45 178.09 154.64 139.12 99.96 81.68 72.89 48.57 33.02 23.51 6.17 -114.51 -229.49 -325.22 -688.42 -799.99 -1534.98 -2874.43 -4337.36 -5432.86 -5627.91 -5628.80 -5637.59 -5639.45 -5597.31 -5342.41 -3822.72 -2616.78 -1476.57 -1385.92 -1819.63 -2466.88 -2866.49 -3479.28 -3806.25 -3878.99 -4083.20 -4177.14 -4203.68 -4225.85 -4228.89 -4230.99 -4232.11 -4240.05 -4241.67 -4247.50 -4251.95 -4262.84 -4262.91
-4608.93 -4608.86 -4609.87 -4611.09 -4610.60 -4609.26 -4608.84 -4604.04 -4599.69 -4594.12 -4590.52 -4576.63 -4571.56 -4567.17 -4552.85 -4542.34 -4522.39 -4513.21 -4507.30 -4509.80 -4291.76 -3717.71 -1723.64 -651.91 -551.98 -357.64 -296.15 -297.30 -231.14 -207.34 -131.34 -7.60 16.41 46.09 63.08 88.75 94.86 112.30 140.88 157.35 185.17 180.17 215.08 233.42 252.38 278.74 294.03 344.57 483.84 535.06 607.14 726.68 742.33 1008.07 1136.54 1191.04 1004.91 972.86 909.23 940.58 822.48 684.67 556.56 557.17 544.35 536.65 525.39 499.39 475.22 470.56 456.77 431.12 395.56 379.24 364.77 341.03 306.09 286.94 271.85 255.45 240.11 235.10 227.48 216.82 224.42 233.93 244.40 262.51 275.67 250.21 244.04 209.12 181.40 151.94 135.06 102.96 81.93 65.50 51.21 21.43 13.06 -58.43 -132.79 -209.94 -361.26 -496.94 -755.86 -1137.47 -1741.17 -2519.63 -3953.26 -5081.68 -5585.89 -5596.47 -5633.59 -5618.79 -5475.40 -5160.34 -3466.18 -2478.08 -1306.92 -1419.59 -1841.38 -2613.85 -3145.51 -3557.36 -3877.85 -4086.81 -4152.28 -4207.85 -4216.09 -4241.37 -4245.77 -4241.53 -4246.78 -4247.06 -4248.94 -4257.07 -4261.76 -4268.13 -4268.74
-4618.25 -4618.18 -4618.73 -4621.44 -4622.21 -4620.34 -4617.63 -4614.64 -4612.98 -4604.37 -4599.97 -4594.62 -4587.99 -4578.49 -4569.26 -4564.26 -4547.83 -4531.29 -4499.47 -4417.36 -3948.33 -3421.92 -2381.70 -1039.00 -927.67 -659.78 -495.78 -403.75 -325.55 -275.88 -181.68 -82.90 -16.44 22.48 12.35 52.80 69.32 85.22 101.46 127.30 153.02 154.24 186.43 205.70 224.89 239.11 259.57 346.24 422.94 358.05 578.24 889.28 873.50 1018.05 1035.99 1000.22 830.74 643.14 657.23 737.83 679.44 554.40 534.83 498.07 484.80 483.12 483.19 477.42 457.53 434.97 427.44 398.15 384.43 359.73 335.12 325.99 284.40 273.29 264.07 237.52 220.72 208.98 196.74 194.40 196.00 197.52 216.79 239.65 243.14 241.82 219.96 191.92 158.17 126.36 108.48 85.61 59.88 47.87 27.16 2.36 -54.13 -145.95 -180.77 -304.41 -432.05 -664.70 -887.62 -1403.56 -2446.27 -3477.99 -4264.77 -5296.62 -5529.29 -5586.82 -5623.04 -5615.65 -5529.21 -4867.37 -3266.89 -1998.67 -1448.82 -1726.21 -2301.20 -2871.54 -3566.76 -3880.52 -4075.54 -4170.71 -4197.16 -4224.29 -4232.30 -4246.14 -4254.12 -4258.30 -4260.30 -4258.20 -4260.59 -4262.74 -4267.45 -4274.54 -4274.61
-4627.10 -4627.78 -4629.75 -4629.17 -4629.91 -4628.35 -4628.47 -4624.32 -4624.49 -4619.67 -4615.57 -4609.78 -4607.26 -4591.89 -4582.99 -4577.64 -4571.08 -4561.46 -4516.02 -4353.89 -3898.95 -3038.71 -2109.81 -1632.44 -1739.65 -1402.36 -1033.71 -481.66 -442.03 -348.94 -245.49 -143.25 -67.21 -27.90 -19.89 22.52 50.00 71.34 89.19 107.41 130.54 146.28 162.13 175.10 202.39 222.07 230.81 228.00 322.59 354.78 680.61 938.26 1048.10 993.92 762.88 726.51 737.58 570.72 510.39 657.41 603.85 464.88 456.17 471.18 466.90 462.57 458.82 458.89 443.16 415.43 410.36 385.07 371.48 344.16 296.60 282.04 268.97 251.03 233.62 207.11 199.51 188.78 187.27 177.90 182.02 176.32 202.71 213.92 213.07 204.24 186.76 172.71 122.37 101.36 92.14 58.63 39.37 18.52 3.78 -67.39 -153.16 -232.12 -337.92 -290.51 -482.75 -771.28 -923.78 -1626.52 -2281.71 -4001.76 -4897.04 -5479.50 -5590.73 -5615.75 -5614.28 -5596.88 -5363.49 -5109.42 -2862.09 -1632.76 -1752.62 -2503.85 -2825.02 -3140.59 -3678.52 -4040.36 -4142.42 -4203.80 -4218.19 -4233.30 -4247.31 -4257.15 -4260.48 -4261.15 -4263.23 -4265.76 -4264.53 -4266.67 -4272.44 -4279.79 -4279.86
-4635.41 -4635.34 -4635.87 -4636.27 -4638.42 -4642.00 -4638.72 -4635.93 -4635.66 -4629.57 -4629.17 -4623.47 -4620.18 -4612.38 -4606.06 -4597.79 -4594.16 -4579.58 -4560.44 -4421.00 -4049.16 -3166.23 -2487.11 -2203.32 -2399.98 -2805.31 -2726.53 -849.86 -538.78 -413.82 -325.97 -202.90 -131.14 -49.01 -30.69 -6.84 19.52 52.83 73.91 94.00 93.39 103.52 118.17 131.60 161.21 173.30 188.39 203.40 245.96 384.37 715.21 894.36 1034.92 774.99 694.27 522.89 591.94 523.17 418.84 532.35 468.57 423.20 419.08 420.05 428.58 436.00 424.43 439.09 418.87 401.34 387.97 359.72 347.43 321.88 290.82 270.54 249.25 231.74 215.41 206.03 185.35 175.78 160.33 158.29 155.04 158.86 174.15 175.50 182.80 175.43 157.52 138.88 115.85 82.72 77.32 53.45 26.00 0.08 -73.78 -159.26 -290.51 -305.68 -467.61 -457.22 -673.36 -1068.55 -1657.23 -2729.94 -3388.87 -4301.49 -5149.49 -5476.37 -5571.50 -5595.32 -5609.25 -5542.41 -5340.99 -4411.31 -2609.72 -2019.18 -2108.71 -2796.60 -3350.44 -3470.66 -3787.75 -4073.58 -4168.78 -4217.03 -4231.06 -4244.39 -4258.79 -4259.22 -4274.55 -4276.56 -4277.64 -4274.54 -4273.16 -4273.67 -4276.55 -4284.36 -4284.43
-4643.45 -4643.38 -4644.75 -4647.79 -4649.59 -4648.86 -4651.74 -4649.04 -4645.32 -4647.14 -4645.16 -4638.47 -4634.72 -4628.72 -4629.46 -4620.36 -4615.14 -4609.76 -4595.41 -4468.86 -4247.25 -3845.04 -3483.65 -3392.60 -3427.91 -4226.46 -4239.42 -2987.11 -1184.42 -540.87 -377.42 -293.85 -179.92 -83.52 -44.88 -37.20 -6.23 27.78 52.57 56.74 72.99 95.26 105.98 116.66 131.51 145.17 164.89 168.98 222.06 312.55 472.68 769.33 923.87 703.28 479.70 342.85 401.75 420.30 385.73 420.54 407.47 384.50 388.08 398.07 395.96 395.85 394.83 377.30 381.68 372.15 338.46 332.13 321.32 274.33 256.62 257.46 236.57 213.46 203.36 187.04 168.73 156.80 144.65 141.80 137.95 139.63 142.06 148.26 148.72 137.44 127.75 112.25 72.41 54.79 41.43 38.78 20.87 -19.52 -118.98 -274.77 -355.70 -447.49 -599.29 -714.95 -991.25 -1711.13 -2237.63 -3754.97 -4762.56 -5213.63 -5337.45 -5410.03 -5524.09 -5579.25 -5601.97 -5532.80 -5273.02 -3994.62 -2671.26 -2218.04 -2568.71 -2978.75 -3521.36 -3948.25 -3985.23 -4147.07 -4200.87 -4225.92 -4245.23 -4257.93 -4268.17 -4281.82 -4285.56 -4285.44 -4283.20 -4282.70 -4278.44 -4281.98 -4285.39 -4288.66 -4288.73
-4651.48 -4651.41 -4652.87 -4656.95 -4656.54 -4660.27 -4660.64 -4657.63 -4658.63 -4659.04 -4657.72 -4653.34 -4651.74 -4651.92 -4645.22 -4643.73 -4633.03 -4631.50 -4618.63 -4604.29 -4537.62 -4311.15 -4177.88 -4094.26 -4299.89 -4479.23 -4552.30 -3856.89 -2628.82 -626.85 -502.23 -308.65 -234.02 -172.07 -129.87 -80.99 -36.21 2.45 25.22 31.02 46.74 61.61 79.90 78.60 102.69 127.51 146.84 152.64 184.78 218.99 398.36 625.99 701.85 506.65 416.47 316.65 318.04 342.87 358.99 334.29 342.39 364.71 377.42 373.15 373.95 359.77 365.41 358.08 351.54 339.17 328.39 316.17 302.48 264.76 259.42 235.37 216.73 200.82 165.42 156.54 154.71 136.54 127.09 113.25 116.54 112.62 116.85 114.64 109.63 101.69 92.34 69.13 55.88 37.51 27.08 20.31 5.64 -25.81 -174.91 -327.30 -471.28 -867.72 -934.82 -1734.82 -2360.52 -2474.61 -3998.00 -4620.87 -5199.66 -5406.95 -5391.94 -5371.57 -5456.01 -5477.79 -5537.41 -5515.87 -4918.14 -4372.91 -2968.00 -2326.73 -2923.17 -3364.53 -3713.88 -4068.51 -4129.96 -4188.87 -4219.55 -4243.84 -4256.06 -4268.07 -4275.61 -4292.59 -4295.53 -4294.40 -4291.40 -4288.69 -4285.09 -4289.11 -4290.80 -4293.19 -4293.26
-4659.75 -4659.68 -4662.07 -4665.36 -4665.76 -4670.45 -4672.13 -4673.96 -4673.35 -4670.78 -4673.55 -4673.76 -4667.64 -4668.35 -4666.98 -4671.27 -4663.10 -4661.57 -4660.28 -4641.99 -4648.28 -4632.26 -4543.08 -4532.22 -4581.40 -4743.93 -4861.88 -4118.87 -2557.38 -811.05 -500.42 -357.07 -294.80 -248.97 -151.99 -127.28 -73.03 -51.60 -19.09 -0.86 29.24 34.16 36.03 39.12 63.50 89.14 104.05 113.63 139.30 200.54 348.75 497.21 514.05 327.68 328.54 278.69 276.31 280.70 295.07 294.63 310.37 315.07 333.27 321.09 331.87 326.93 333.87 326.71 326.47 310.85 304.56 287.14 264.21 255.95 222.01 195.01 180.75 170.55 146.84 132.73 129.93 116.66 109.58 102.53 96.17 81.49 85.80 91.03 81.82 72.63 67.09 48.80 41.74 20.82 6.02 -5.84 -48.77 -167.35 -272.77 -345.23 -805.18 -1014.50 -1203.98 -2263.27 -3541.28 -4184.94 -4765.90 -5307.26 -5408.38 -5472.23 -5474.43 -5409.32 -5385.42 -5463.37 -5572.50 -5551.03 -5130.83 -3726.53 -3007.94 -2510.57 -3260.78 -3579.66 -3823.25 -4140.04 -4197.66 -4215.75 -4243.46 -4256.89 -4269.60 -4282.22 -4292.45 -4298.90 -4305.98 -4304.44 -4296.95 -4294.25 -4290.67 -4292.13 -4294.61 -4297.81 -4297.88
-4668.47 -4668.41 -4669.96 -4673.83 -4677.55 -4679.88 -4681.25 -4683.88 -4687.46 -4688.47 -4689.61 -4691.06 -4693.37 -4692.59 -4692.67 -4690.76 -4688.73 -4682.59 -4678.37 -4686.75 -4667.14 -4645.96 -4630.11 -4623.35 -4618.62 -4729.23 -4857.35 -4815.41 -2422.80 -989.47 -587.58 -470.24 -352.76 -309.55 -211.48 -183.15 -135.75 -111.58 -88.04 -50.90 -20.21 2.46 10.36 16.27 31.73 54.35 74.33 79.82 90.31 128.83 257.81 336.81 326.20 233.91 210.90 216.96 249.27 251.70 260.49 251.34 267.52 281.91 304.53 309.81 297.97 302.65 297.17 302.16 294.43 288.75 249.32 252.93 239.23 228.30 206.16 172.71 166.33 145.12 122.21 111.81 97.83 94.78 93.43 81.04 84.58 67.53 65.03 66.77 53.57 45.28 32.79 30.16 22.99 -13.18 -95.05 -166.55 -214.63 -305.38 -389.90 -594.02 -1280.98 -1292.58 -2253.68 -3379.36 -4649.53 -5149.24 -5333.98 -5443.21 -5445.58 -5488.82 -5511.84 -5456.79 -5387.84 -5540.41 -5526.91 -5370.63 -4712.86 -3689.25 -2680.70 -2701.36 -3413.57 -3789.20 -4033.80 -4168.18 -4213.73 -4233.37 -4258.13 -4271.14 -4280.74 -4288.31 -4302.50 -4307.64 -4311.09 -4311.48 -4305.95 -4301.46 -4298.74 -4297.28 -4298.97 -4302.98 -4303.05
-4677.68 -4677.62 -4681.36 -4683.81 -4688.70 -4692.63 -4692.54 -4694.99 -4697.25 -4698.90 -4701.29 -4702.37 -4702.44 -4708.32 -4714.28 -4714.03 -4713.36 -4710.01 -4710.98 -4704.44 -4707.02 -4682.04 -4669.90 -4654.09 -4667.53 -4738.55 -4799.54 -4255.16 -2400.14 -1107.59 -799.10 -548.67 -457.86 -427.02 -320.88 -292.62 -204.86 -195.97 -153.36 -81.51 -66.12 -22.02 -35.35 -29.73 6.72 20.21 51.70 63.79 54.50 55.61 151.55 215.18 144.72 148.24 183.20 185.92 195.64 192.82 229.14 229.92 238.62 242.40 260.67 266.22 259.25 262.80 255.73 257.23 275.31 243.89 216.89 219.30 214.45 194.76 156.79 160.42 139.86 106.45 95.16 82.68 81.55 74.70 69.36 60.92 58.25 54.88 47.99 33.69 32.76 30.94 13.50 -1.37 -37.17 -113.92 -267.17 -269.57 -313.19 -515.86 -731.41 -988.46 -1689.14 -3013.94 -3794.46 -4592.43 -4961.59 -5261.59 -5422.47 -5475.09 -5572.33 -5559.31 -5481.29 -5253.12 -5145.88 -5065.87 -5016.89 -4665.25 -4432.75 -3252.98 -2582.71 -3183.67 -3693.12 -4070.30 -4200.03 -4217.83 -4240.83 -4255.20 -4276.96 -4285.46 -4297.41 -4306.90 -4315.48 -4318.12 -4318.78 -4320.92 -4313.85 -4310.86 -4306.57 -4304.81 -4305.72 -4308.26 -4308.32
-4687.56 -4687.50 -4689.99 -4696.04 -4700.58 -4703.82 -4708.06 -4710.53 -4710.22 -4714.42 -4717.90 -4720.06 -4723.89 -4722.51 -4732.43 -4732.76 -4735.09 -4737.51 -4733.14 -4735.71 -4739.16 -4711.34 -4713.32 -4704.15 -4691.65 -4713.97 -4762.20 -4533.74 -3183.54 -2228.54 -1381.34 -918.59 -703.45 -572.50 -460.36 -402.06 -296.63 -245.14 -215.48 -184.79 -131.90 -90.35 -81.96 -47.74 -37.92 -2.72 24.45 15.90 20.52 29.82 55.57 79.43 81.85 117.74 136.09 143.69 158.77 175.22 181.84 202.43 215.79 211.35 212.70 227.33 224.30 236.48 232.05 229.25 222.19 207.71 196.93 189.49 180.52 156.68 148.66 117.01 98.21 92.17 87.79 75.74 63.34 58.34 58.00 49.55 37.59 43.19 26.79 11.75 2.62 -18.59 -28.73 -38.36 -116.22 -209.25 -273.16 -300.97 -377.45 -594.61 -1705.01 -3531.90 -3475.18 -4089.53 -4887.06 -5257.66 -5437.73 -5463.85 -5471.26 -5530.68 -5614.30 -3956.25 -4994.64 -4433.09 -4269.74 -3688.40 -3585.64 -3450.10 -3053.84 -2678.14 -2854.86 -3421.84 -3967.96 -4161.11 -4215.21 -4238.73 -4255.76 -4270.60 -4288.35 -4297.18 -4305.99 -4316.11 -4323.52 -4328.71 -4334.76 -4328.39 -4322.14 -4313.46 -4313.12 -4311.04 -4310.82 -4314.25 -4314.32
-4698.50 -4700.08 -4703.98 -4705.81 -4709.81 -4714.31 -4718.50 -4718.56 -4729.49 -4732.66 -4731.66 -4735.93 -4738.12 -4749.12 -4752.32 -4756.88 -4758.09 -4767.13 -4764.71 -4765.82 -4767.21 -4746.92 -4740.27 -4718.92 -4701.29 -4698.93 -4735.49 -4831.56 -4799.49 -3229.48 -1679.89 -1416.00 -1146.22 -761.49 -668.16 -475.86 -405.36 -340.04 -295.83 -246.84 -196.23 -146.23 -123.19 -102.13 -85.86 -40.16 -11.02 -9.77 -10.33 -7.42 23.30 50.70 67.74 83.12 108.07 109.96 118.38 148.93 141.52 172.09 162.87 174.56 186.95 186.78 178.69 192.56 196.10 192.33 201.08 197.25 164.17 150.49 146.98 124.36 117.33 100.09 87.79 84.78 68.25 59.91 42.99 44.04 39.22 31.80 22.64 25.07 6.89 1.83 -29.23 -43.79 -94.09 -134.28 -255.28 -332.58 -378.37 -537.85 -799.49 -1043.43 -2756.33 -3608.96 -4709.81 -4878.03 -5187.54 -5553.79 -5263.14 -4916.36 -4729.81 -4314.15 -4365.49 -1528.23 -1526.44 -1689.02 -1093.45 -2118.55 -2599.70 -2978.90 -2792.67 -2957.95 -3090.94 -3738.92 -4096.85 -4231.56 -4241.44 -4258.54 -4268.89 -4282.64 -4298.59 -4310.07 -4321.54 -4324.70 -4335.34 -4337.08 -4342.38 -4340.08 -4331.99 -4325.22 -4316.60 -4317.58 -4319.00 -4320.57 -4320.34
-4710.80 -4710.74 -4712.24 -4719.38 -4725.80 -4726.71 -4734.77 -4739.29 -4741.89 -4744.40 -4753.26 -4755.26 -4759.65 -4764.32 -4773.27 -4773.40 -4771.82 -4783.26 -4785.60 -4788.39 -4789.41 -4780.85 -4768.79 -4739.97 -4717.32 -4704.23 -4713.54 -4751.89 -4812.29 -4272.97 -2986.20 -2701.64 -2461.29 -1750.69 -1108.05 -751.36 -717.91 -417.62 -354.71 -294.80 -256.08 -225.24 -210.12 -192.18 -153.90 -108.14 -36.87 -25.73 -16.72 -17.24 0.60 40.09 50.38 68.65 69.46 84.83 89.78 109.68 100.91 97.84 116.50 119.31 141.90 162.51 156.31 139.56 138.76 163.89 157.13 148.45 142.32 141.31 129.71 99.30 89.34 72.12 67.49 60.41 48.86 38.44 28.03 21.95 19.61 15.36 13.29 6.32 -10.88 -36.73 -67.53 -100.53 -139.79 -185.12 -363.19 -444.74 -873.70 -974.46 -2055.51 -2297.20 -3059.74 -4278.64 -5076.91 -5298.10 -5417.97 -5088.10 -4127.04 -3107.49 -3132.84 -2423.41 -313.64 -92.98 -140.10 12.41 -421.55 -478.13 -1932.88 -2863.07 -3385.13 -3638.34 -3776.31 -3917.72 -4215.36 -4248.27 -4259.90 -4275.16 -4291.01 -4308.22 -4317.41 -4322.82 -4332.27 -4344.25 -4345.45 -4346.87 -4349.99 -4346.92 -4338.51 -4335.49 -4329.03 -4326.59 -4325.23 -4327.22 -4327.28
-4724.96 -4724.91 -4728.44 -4733.62 -4744.24 -4743.27 -4748.37 -4754.48 -4759.66 -4767.87 -4766.58 -4770.56 -4774.19 -4780.30 -4786.77 -4793.64 -4797.07 -4803.63 -4807.11 -4815.77 -4810.47 -4806.77 -4788.79 -4770.22 -4739.02 -4721.27 -4720.30 -4732.74 -4760.48 -4797.47 -4304.64 -3661.76 -3392.63 -3643.00 -2643.76 -1933.12 -1122.59 -832.92 -444.68 -397.44 -311.86 -269.83 -274.64 -247.73 -215.31 -124.52 -75.99 -46.66 -35.07 -30.82 -28.89 -4.76 13.12 47.74 53.28 63.61 60.72 68.02 90.96 92.15 99.25 116.15 123.12 122.10 125.17 118.89 125.59 119.69 115.97 129.47 114.81 116.31 87.01 72.88 59.78 47.97 46.33 38.39 25.81 18.01 12.88 11.76 1.87 -5.22 -4.08 -14.72 -31.98 -66.35 -114.09 -145.64 -183.83 -267.36 -438.98 -609.29 -842.97 -1110.44 -2707.21 -3651.23 -3697.37 -4424.22 -4859.98 -4695.33 -4441.35 -2955.17 -1600.50 -371.67 -94.63 -38.34 6.64 15.02 20.94 18.57 1.03 -181.39 -1445.96 -2974.49 -3547.44 -3780.71 -3872.49 -4092.51 -4200.91 -4265.09 -4277.80 -4291.40 -4311.03 -4324.52 -4330.00 -4343.33 -4349.73 -4353.74 -4361.71 -4362.16 -4364.81 -4357.50 -4348.77 -4343.78 -4337.99 -4335.10 -4332.73 -4334.57 -4334.63
-4741.58 -4741.53 -4743.82 -4753.00 -4753.48 -4766.08 -4764.74 -4775.36 -4774.38 -4782.10 -4785.89 -4791.46 -4799.06 -4804.91 -4809.19 -4813.69 -4824.44 -4831.12 -4832.54 -4842.00 -4836.67 -4832.32 -4819.21 -4792.38 -4763.43 -4748.08 -4738.54 -4729.32 -4741.21 -4756.78 -4820.24 -4707.18 -4555.02 -4400.94 -3841.73 -3929.45 -2685.22 -1807.62 -1277.63 -454.16 -392.27 -346.43 -331.96 -289.24 -256.81 -211.73 -163.68 -172.84 -141.74 -126.57 -81.52 -63.90 -46.26 3.69 18.07 31.82 18.43 27.86 51.19 56.93 71.77 72.02 72.39 92.57 105.00 104.81 100.60 98.45 95.73 96.25 72.75 75.95 64.14 44.51 35.71 32.94 23.65 14.15 -1.72 -6.68 -7.24 -8.33 -8.00 -18.74 -30.79 -47.46 -78.63 -130.62 -157.41 -215.24 -242.77 -289.23 -399.95 -490.58 -718.75 -1024.94 -3482.81 -3244.50 -3274.05 -2787.86 -2956.40 -2477.54 -1110.32 -181.13 -154.83 -5.25 1.05 3.30 17.46 17.95 19.34 16.96 4.23 -25.23 -1181.31 -2610.70 -3340.90 -3728.78 -3989.09 -4102.85 -4213.09 -4266.11 -4293.50 -4310.97 -4323.85 -4339.36 -4347.43 -4351.98 -4360.33 -4367.33 -4374.11 -4371.79 -4374.22 -4371.93 -4361.84 -4355.61 -4348.68 -4346.06 -4345.09 -4342.30 -4342.36
-4761.03 -4763.82 -4768.40 -4771.45 -4778.17 -4780.74 -4786.17 -4790.56 -4797.01 -4801.71 -4805.43 -4811.54 -4815.27 -4817.70 -4826.49 -4836.91 -4842.40 -4845.03 -4856.65 -4858.85 -4864.75 -4856.75 -4843.53 -4830.53 -4808.37 -4783.78 -4768.81 -4745.77 -4736.69 -4788.56 -4856.18 -4858.79 -4858.62 -4806.79 -4729.01 -4682.01 -4213.09 -2800.36 -2273.44 -1455.32 -606.12 -420.61 -360.49 -336.03 -303.80 -306.05 -277.89 -250.72 -220.04 -188.01 -199.03 -160.38 -159.82 -91.17 -57.85 -20.02 -39.21 -30.97 -10.29 26.60 25.74 24.49 44.59 58.92 58.61 59.89 62.49 57.57 51.43 65.15 43.01 37.54 25.32 29.30 16.18 11.52 10.87 8.83 -6.06 -17.17 -12.45 -18.69 -21.67 -24.67 -50.18 -93.00 -113.46 -153.89 -194.82 -243.32 -262.42 -286.75 -343.16 -449.04 -655.28 -976.33 -2494.80 -1945.44 -992.14 -940.95 -567.74 -15.82 -8.68 22.35 57.02 49.67 37.51 22.45 18.14 17.26 13.09 12.02 6.36 -32.59 -1279.83 -2396.25 -3167.89 -3733.37 -3992.77 -4150.12 -4230.59 -4280.32 -4312.44 -4325.86 -4339.53 -4348.37 -4361.99 -4371.35 -4373.30 -4380.03 -4386.44 -4385.62 -4387.82 -4382.68 -4373.04 -4368.94 -4362.87 -4352.71 -4350.93 -4349.86 -4349.92
-4783.45 -4783.40 -4798.18 -4794.64 -4808.07 -4806.76 -4816.05 -4816.74 -4822.26 -4825.18 -4835.09 -4841.06 -4845.06 -4851.12 -4855.50 -4857.41 -4869.38 -4872.72 -4878.53 -4878.96 -4884.41 -4879.89 -4862.82 -4854.90 -4827.46 -4810.56 -4797.19 -4788.39 -4776.79 -4793.16 -4818.14 -4819.18 -4813.96 -4821.97 -4822.04 -4785.70 -4678.55 -3980.49 -2624.93 -2117.74 -1653.91 -1223.83 -718.77 -385.02 -421.90 -346.19 -381.56 -383.11 -316.77 -285.28 -241.01 -233.30 -190.29 -148.06 -111.99 -84.73 -64.63 -58.44 -38.85 -12.54 -13.60 -1.36 10.02 10.91 20.04 31.24 43.33 33.94 26.28 22.59 25.16 8.35 11.39 6.90 0.86 -5.15 -3.82 -16.64 -24.30 -38.31 -45.68 -35.01 -53.27 -91.15 -100.73 -120.63 -148.95 -159.67 -192.31 -227.17 -256.66 -273.66 -283.64 -376.62 -489.61 -1006.56 -1742.90 -152.17 -13.48 55.26 83.79 67.22 97.02 103.64 96.74 76.23 51.46 29.81 15.40 11.15 7.25 6.66 2.39 -58.06 -886.32 -2461.18 -3220.15 -3701.15 -3943.37 -4072.04 -4222.22 -4266.71 -4331.43 -4343.83 -4354.29 -4373.28 -4374.28 -4382.95 -4387.16 -4391.91 -4403.09 -4404.98 -4403.18 -4394.37 -4392.22 -4381.49 -4374.96 -4363.79 -4359.90 -4356.95 -4357.01
-4809.18 -4812.78 -4820.95 -4827.85 -4832.99 -4836.92 -4835.93 -4845.81 -4849.83 -4854.35 -4866.84 -4863.44 -4873.57 -4875.93 -4889.91 -4888.81 -4892.95 -4897.34 -4908.27 -4920.43 -4915.56 -4908.84 -4893.75 -4887.04 -4876.71 -4851.99 -4836.73 -4825.03 -4816.69 -4821.69 -4831.96 -4830.17 -4821.92 -4823.51 -4825.41 -4836.37 -4829.09 -4374.36 -4145.62 -3208.37 -2327.35 -1959.50 -1346.72 -486.31 -471.66 -460.58 -491.02 -436.16 -384.47 -330.77 -287.45 -303.65 -235.04 -185.92 -185.04 -149.40 -155.48 -121.04 -104.31 -61.88 -34.28 -26.12 -30.22 -21.85 -21.74 -12.27 -7.45 -8.24 -18.18 -14.45 -20.25 -8.16 -17.55 -12.91 -29.10 -45.73 -70.28 -39.91 -53.31 -49.49 -67.78 -79.95 -91.66 -125.78 -130.80 -147.37 -157.25 -169.43 -179.61 -213.73 -226.06 -247.54 -265.09 -306.50 -308.73 -293.75 -270.19 -71.06 36.51 110.75 147.85 120.72 160.63 147.02 119.28 94.41 56.75 35.80 13.10 1.94 -13.21 -17.81 -62.20 -613.76 -1806.26 -2683.35 -3340.51 -3686.55 -3925.95 -4091.77 -4159.06 -4245.22 -4322.17 -4357.44 -4374.15 -4383.96 -4387.78 -4392.23 -4403.93 -4412.06 -4415.83 -4417.82 -4416.51 -4410.32 -4403.07 -4395.36 -4386.66 -4374.15 -4367.53 -4362.66 -4362.72
-4838.28 -4842.40 -4847.32 -4855.69 -4860.74 -4871.43 -4877.41 -4882.29 -4887.43 -4891.12 -4891.04 -4898.37 -4896.16 -4908.17 -4906.99 -4918.47 -4925.76 -4926.60 -4924.97 -4935.57 -4934.32 -4927.62 -4915.74 -4908.39 -4906.34 -4893.98 -4878.54 -4874.61 -4850.11 -4852.21 -4852.24 -4849.01 -4849.91 -4843.62 -4840.57 -4823.29 -4789.80 -4625.46 -4355.47 -3975.11 -3289.37 -3193.82 -2313.09 -1698.90 -1097.72 -694.86 -716.06 -543.46 -500.96 -415.26 -373.54 -370.16 -305.58 -308.26 -275.52 -241.79 -243.86 -184.52 -167.76 -130.42 -121.00 -109.60 -116.25 -69.89 -57.03 -71.86 -56.16 -62.15 -51.51 -49.43 -50.91 -60.03 -56.57 -63.75 -73.65 -89.46 -114.52 -91.63 -80.43 -88.53 -120.84 -130.40 -131.87 -142.14 -139.98 -143.76 -145.84 -153.91 -176.76 -190.71 -196.18 -179.32 -164.01 -181.83 -167.07 -118.08 -51.72 63.07 93.57 161.19 243.86 220.42 216.01 183.09 142.12 94.01 54.21 37.85 -4.27 -25.07 -67.85 -128.35 -210.07 -1445.44 -2108.50 -2719.11 -3079.09 -3602.89 -3821.91 -3981.73 -4129.57 -4261.57 -4313.31 -4370.10 -4384.86 -4397.26 -4404.70 -4413.06 -4419.49 -4422.09 -4433.10 -4433.18 -4432.79 -4425.80 -4413.52 -4404.66 -4394.69 -4378.86 -4375.57 -4365.97 -4366.03
-4870.70 -4870.66 -4883.60 -4880.05 -4885.33 -4889.77 -4908.10 -4915.07 -4924.90 -4925.24 -4928.11 -4934.48 -4953.92 -4951.60 -4956.49 -4948.08 -4946.77 -4943.56 -4951.29 -4955.52 -4963.11 -4956.29 -4952.02 -4945.66 -4932.09 -4928.37 -4921.25 -4917.54 -4894.22 -4894.05 -4877.62 -4883.28 -4868.00 -4869.18 -4850.30 -4851.08 -4845.39 -4844.17 -4720.94 -4560.30 -4506.19 -3851.02 -3685.39 -3440.37 -2194.00 -1725.45 -1265.24 -955.26 -559.69 -514.23 -458.43 -476.47 -436.20 -366.13 -348.64 -291.87 -321.48 -283.98 -281.56 -230.09 -205.56 -160.70 -148.34 -122.73 -140.72 -138.13 -127.24 -120.09 -89.20 -79.54 -98.02 -95.27 -113.29 -107.03 -109.65 -115.83 -135.33 -134.99 -136.77 -135.88 -139.35 -146.30 -145.64 -143.22 -133.89 -119.94 -121.82 -138.05 -160.12 -144.09 -156.62 -123.86 -116.11 -64.90 -57.08 4.23 51.71 165.37 248.32 324.67 382.44 299.02 216.89 167.91 126.49 95.41 62.70 21.39 -23.34 -112.68 -412.85 -848.65 -1156.46 -1884.60 -2206.74 -2696.13 -3184.11 -3586.66 -3914.56 -4011.64 -4164.93 -4292.05 -4335.53 -4370.72 -4389.78 -4413.15 -4420.18 -4424.69 -4430.23 -4443.44 -4445.35 -4445.41 -4444.99 -4437.98 -4427.64 -4412.51 -4403.62 -4384.93 -4381.09 -4365.86 -4365.93
-4906.14 -4906.11 -4910.66 -4917.66 -4931.39 -4942.79 -4945.86 -4953.83 -4946.82 -4953.31 -4967.51 -4981.05 -4972.27 -4973.76 -4974.01 -4964.38 -4962.76 -4969.94 -4970.57 -4977.05 -4986.00 -4990.64 -4984.85 -4972.50 -4977.32 -4960.69 -4963.55 -4952.90 -4940.85 -4926.69 -4917.64 -4910.77 -4914.08 -4908.39 -4907.33 -4902.98 -4893.65 -4881.49 -4848.45 -4816.45 -4677.03 -4592.00 -4451.76 -4084.40 -3535.57 -2625.64 -1886.01 -1472.25 -937.28 -794.62 -622.80 -546.14 -508.16 -493.32 -492.30 -415.17 -405.59 -381.28 -349.27 -334.73 -259.78 -257.46 -248.49 -230.30 -193.81 -198.07 -187.56 -160.49 -155.17 -145.20 -145.31 -143.20 -133.40 -133.46 -141.86 -170.38 -162.41 -163.27 -162.30 -154.11 -151.76 -144.40 -137.49 -114.63 -117.26 -88.20 -91.29 -100.04 -108.24 -99.74 -102.96 -91.86 -81.54 -25.43 26.77 54.55 106.74 340.02 354.41 428.36 443.72 242.58 187.57 163.87 132.19 81.48 52.15 36.99 3.52 -125.36 -352.03 -901.14 -1450.62 -1897.42 -2154.04 -2699.16 -3311.28 -3625.23 -3939.86 -4064.23 -4182.38 -4296.97 -4345.41 -4375.30 -4404.90 -4423.18 -4434.39 -4444.07 -4453.26 -4455.19 -4459.29 -4457.02 -4455.22 -4448.86 -4432.21 -4422.71 -4406.92 -4392.58 -4379.78 -4364.78 -4361.85
-4944.08 -4944.05 -4962.40 -4980.30 -4979.20 -4976.33 -4992.51 -4997.05 -4992.79 -5002.28 -5005.91 -5003.76 -5012.84 -5018.09 -5009.41 -5002.06 -5007.28 -5002.45 -5006.52 -4999.60 -5007.69 -5013.09 -5013.79 -5010.97 -5001.61 -4998.50 -5012.30 -5013.66 -4996.74 -4985.65 -4973.78 -4970.13 -4960.14 -4962.73 -4961.68 -4945.24 -4943.28 -4932.33 -4928.71 -4917.83 -4888.45 -4867.96 -4781.94 -4609.03 -4531.55 -3525.28 -2952.62 -2175.72 -1551.53 -1150.33 -795.82 -650.92 -752.99 -554.73 -551.07 -566.92 -457.28 -463.88 -435.76 -385.09 -368.60 -332.57 -322.05 -281.92 -233.33 -215.60 -210.98 -195.05 -183.59 -181.51 -169.73 -179.22 -168.46 -174.60 -174.30 -171.16 -168.35 -167.45 -165.50 -160.76 -151.28 -129.93 -108.45 -81.99 -71.73 -63.78 -45.31 -60.15 -50.31 -44.26 -35.95 -26.49 15.45 44.75 65.51 124.69 221.97 411.69 464.92 361.99 254.92 165.15 144.08 117.44 100.92 75.87 51.64 11.45 -42.59 -177.12 -574.87 -1044.69 -1681.15 -2120.70 -2478.61 -3005.47 -3392.23 -3758.32 -3920.16 -4115.09 -4212.00 -4286.02 -4351.42 -4401.40 -4420.31 -4434.48 -4453.85 -4458.60 -4466.02 -4468.86 -4471.44 -4468.68 -4460.00 -4453.30 -4438.60 -4424.39 -4402.70 -4391.57 -4377.39 -4352.99 -4353.07
-4983.92 -4989.68 -4996.94 -5008.68 -5015.82 -5027.02 -5037.83 -5033.98 -5042.33 -5042.70 -5070.71 -5065.26 -5054.51 -5046.44 -5034.59 -5031.35 -5036.34 -5029.57 -5027.39 -5037.38 -5048.43 -5060.91 -5057.08 -5060.17 -5040.42 -5044.66 -5051.26 -5045.71 -5033.94 -5024.96 -5007.07 -5014.72 -5002.98 -4999.99 -4999.90 -5000.42 -4983.35 -4968.45 -4954.43 -4939.32 -4894.65 -4881.05 -4819.22 -4772.36 -4515.70 -4386.23 -3662.87 -3359.34 -2693.50 -2126.79 -1747.73 -1770.18 -1641.11 -1186.15 -874.35 -999.04 -781.35 -697.06 -511.79 -491.60 -471.07 -443.18 -383.69 -289.84 -247.38 -228.75 -213.98 -194.08 -186.76 -181.74 -180.80 -180.10 -179.00 -176.04 -175.14 -172.81 -169.30 -169.33 -165.92 -159.41 -141.80 -116.36 -85.17 -50.00 -35.67 -19.46 -22.47 -22.32 -1.62 -6.19 27.34 41.48 74.82 83.73 107.57 278.31 379.75 493.61 492.64 291.06 161.13 146.84 110.25 51.02 61.02 45.65 6.54 -47.05 -396.77 -421.55 -969.09 -1626.05 -2063.13 -2359.40 -2708.61 -3280.92 -3684.88 -3901.23 -3959.65 -4130.44 -4266.32 -4326.01 -4377.27 -4405.63 -4430.26 -4450.87 -4462.50 -4470.93 -4477.11 -4478.54 -4478.05 -4475.22 -4466.70 -4449.45 -4437.34 -4421.40 -4399.54 -4381.54 -4364.89 -4339.12 -4339.20
-5025.24 -5032.72 -5042.83 -5048.58 -5061.58 -5072.48 -5079.90 -5084.81 -5099.33 -5099.76 -5109.24 -5109.27 -5096.13 -5085.45 -5071.77 -5085.11 -5084.92 -5074.60 -5074.62 -5087.10 -5074.52 -5101.65 -5084.27 -5094.00 -5105.51 -5100.93 -5094.15 -5085.79 -5093.52 -5082.60 -5092.08 -5078.22 -5075.61 -5046.45 -5024.00 -5026.58 -5004.21 -4992.36 -4994.66 -4984.23 -4888.49 -4877.89 -4844.74 -4695.64 -4596.73 -4542.45 -4614.88 -4517.69 -4252.19 -3459.24 -3162.39 -2901.27 -2573.06 -2483.58 -1353.23 -1689.95 -1167.28 -1205.22 -584.20 -604.00 -618.42 -533.13 -424.16 -322.90 -252.32 -242.65 -213.38 -199.84 -187.44 -182.46 -180.25 -179.97 -179.43 -177.52 -177.62 -171.77 -170.11 -166.30 -161.11 -147.48 -117.49 -86.87 -74.74 -25.37 -18.99 -13.60 5.92 39.42 66.46 80.32 76.56 75.84 102.78 199.66 219.42 336.58 460.57 458.07 336.73 217.84 126.37 110.84 73.23 29.92 29.04 23.82 -41.48 -301.43 -571.90 -914.48 -1200.54 -2085.15 -2388.75 -2636.84 -3003.36 -3466.56 -3786.29 -3909.87 -4072.89 -4180.82 -4276.54 -4343.52 -4392.07 -4413.16 -4440.29 -4457.20 -4473.70 -4481.05 -4482.24 -4483.64 -4478.97 -4475.19 -4463.58 -4446.73 -4427.70 -4409.82 -4389.42 -4360.20 -4347.61 -4317.30 -4321.01
-5075.15 -5075.06 -5081.49 -5103.99 -5102.64 -5115.79 -5127.10 -5134.81 -5137.58 -5140.32 -5147.47 -5155.99 -5154.35 -5136.30 -5133.27 -5122.37 -5117.13 -5119.34 -5106.79 -5112.81 -5128.40 -5132.54 -5157.42 -5146.60 -5146.42 -5141.71 -5140.23 -5146.88 -5135.09 -5125.98 -5129.18 -5104.70 -5100.65 -5099.07 -5076.81 -5063.31 -5050.27 -5025.17 -4996.08 -4992.60 -4929.42 -4832.29 -4796.98 -4727.50 -4700.42 -4658.84 -4635.46 -4573.10 -4354.00 -3964.96 -3898.89 -4042.89 -3802.36 -3662.87 -3112.60 -2733.76 -2775.65 -1546.55 -1352.53 -985.05 -726.65 -655.82 -452.14 -346.94 -275.11 -254.17 -231.44 -206.21 -186.93 -183.21 -180.18 -179.83 -179.25 -177.88 -173.59 -166.55 -148.10 -150.52 -130.43 -109.03 -87.48 -62.83 -40.05 -21.56 -12.62 47.04 62.35 77.41 92.30 95.48 118.84 119.12 166.93 275.65 309.87 481.62 618.37 449.04 207.91 175.54 103.13 39.53 2.17 -16.22 -36.15 -25.66 -71.31 -476.31 -1187.63 -1551.87 -1801.95 -2223.27 -2568.71 -3073.70 -3261.45 -3583.49 -3821.44 -3929.56 -4080.72 -4185.71 -4256.12 -4355.68 -4409.17 -4430.27 -4452.97 -4472.94 -4479.08 -4486.23 -4486.58 -4485.06 -4477.58 -4470.48 -4461.93 -4440.41 -4415.40 -4398.46 -4368.54 -4346.39 -4323.64 -4301.49 -4294.48
-5117.62 -5117.52 -5134.11 -5145.46 -5135.92 -5172.51 -5180.53 -5176.50 -5194.13 -5189.68 -5198.31 -5202.83 -5195.01 -5182.12 -5180.58 -5173.79 -5173.58 -5161.15 -5149.20 -5171.25 -5170.06 -5183.64 -5192.22 -5201.23 -5201.72 -5190.68 -5190.00 -5187.29 -5186.65 -5182.45 -5171.13 -5170.91 -5147.13 -5129.31 -5111.27 -5103.69 -5071.44 -5063.95 -5036.57 -5001.07 -4976.72 -4871.33 -4816.56 -4741.79 -4711.76 -4563.55 -4497.32 -4241.68 -4125.97 -4032.15 -3990.47 -3909.52 -3762.71 -3742.87 -3494.65 -3252.80 -3217.38 -2675.73 -2145.06 -1889.64 -1359.93 -801.38 -606.15 -385.51 -301.20 -265.93 -232.27 -203.24 -187.22 -181.69 -180.07 -170.89 -171.67 -171.87 -158.95 -134.86 -124.89 -107.26 -99.57 -89.05 -67.20 -33.96 -19.15 -13.55 35.64 68.39 105.66 105.87 99.09 201.38 235.17 276.87 416.21 696.33 503.23 601.88 679.76 434.69 207.97 83.27 54.59 -81.80 -133.59 -159.49 -238.49 -199.20 -723.19 -1083.51 -1380.24 -1751.07 -2151.15 -2680.24 -2932.22 -3239.52 -3489.77 -3642.86 -3964.51 -4049.09 -4170.63 -4243.92 -4329.32 -4366.36 -4416.59 -4447.00 -4465.71 -4478.38 -4485.21 -4487.03 -4485.79 -4483.25 -4471.61 -4462.56 -4445.79 -4423.85 -4395.50 -4373.79 -4351.95 -4316.45 -4300.78 -4271.49 -4268.37
-5159.70 -5159.60 -5182.71 -5174.87 -5193.82 -5211.40 -5220.03 -5226.25 -5228.86 -5239.95 -5254.30 -5257.28 -5235.31 -5232.11 -5219.95 -5216.86 -5205.38 -5196.11 -5210.49 -5211.88 -5211.86 -5218.86 -5237.27 -5232.97 -5239.10 -5235.47 -5238.00 -5235.60 -5226.02 -5232.12 -5217.56 -5216.18 -5206.32 -5181.41 -5158.47 -5139.42 -5111.99 -5091.40 -5050.29 -5018.93 -4981.80 -4943.62 -4861.19 -4773.16 -4634.68 -4491.62 -4374.05 -4320.37 -4212.61 -4141.62 -3998.69 -3875.13 -3784.52 -3778.30 -3576.69 -3447.17 -3336.53 -3092.53 -2978.28 -2812.87 -1993.47 -1546.33 -730.23 -472.10 -345.90 -275.73 -231.89 -208.19 -184.91 -180.73 -152.82 -156.31 -146.68 -128.21 -90.68 -104.74 -92.64 -90.73 -76.23 -58.41 -43.96 -30.89 9.06 53.40 83.60 108.95 122.98 297.98 358.52 643.75 777.02 858.46 1085.50 1577.89 1131.48 977.59 809.64 648.46 301.66 103.55 9.37 -240.84 -557.24 -358.01 -825.38 -771.36 -1247.21 -1459.39 -1622.07 -1885.05 -2274.40 -3066.19 -3107.03 -3468.20 -3681.95 -3829.03 -4005.12 -4163.38 -4202.82 -4321.54 -4383.31 -4404.26 -4435.96 -4455.98 -4471.89 -4484.65 -4485.94 -4484.66 -4477.27 -4472.41 -4456.09 -4446.39 -4431.74 -4411.49 -4375.84 -4349.37 -4325.42 -4293.97 -4272.38 -4249.49 -4240.56
-5200.30 -5198.33 -5211.47 -5223.85 -5226.93 -5239.08 -5250.15 -5268.47 -5270.52 -5278.59 -5287.68 -5288.28 -5281.21 -5281.05 -5270.16 -5273.15 -5260.56 -5250.50 -5246.24 -5243.75 -5262.35 -5270.41 -5280.57 -5275.90 -5269.76 -5283.43 -5285.13 -5277.67 -5273.14 -5266.12 -5269.14 -5249.86 -5240.76 -5215.97 -5187.83 -5167.56 -5148.47 -5112.76 -5074.90 -5051.14 -5012.13 -4967.98 -4904.26 -4757.76 -4632.55 -4511.09 -4448.62 -4339.04 -4244.87 -4085.16 -4009.21 -3867.19 -3776.73 -3658.65 -3602.78 -3525.61 -3369.89 -3177.51 -3032.12 -2779.49 -2629.92 -2314.97 -1292.57 -547.52 -433.71 -314.00 -226.45 -203.24 -185.94 -146.74 -94.85 -47.91 -49.58 -57.82 -43.31 -56.10 -64.06 -61.82 -40.06 -33.58 -6.75 0.95 65.15 88.04 106.08 192.18 325.02 655.49 1111.49 1338.85 1592.13 1902.39 1669.70 1664.97 1055.69 1010.86 800.55 565.31 285.53 21.64 -216.89 -342.73 -1234.25 -1364.73 -1857.10 -1717.12 -1650.26 -2012.72 -2256.57 -2304.42 -2976.53 -3399.59 -3556.58 -3793.73 -3831.10 -3964.93 -4081.44 -4187.79 -4261.23 -4316.81 -4400.81 -4419.57 -4439.56 -4454.93 -4473.67 -4480.91 -4479.23 -4475.87 -4467.39 -4457.68 -4443.40 -4428.96 -4406.30 -4385.28 -4353.49 -4326.86 -4291.41 -4268.29 -4251.25 -4212.16 -4212.20
-5238.10 -5236.76 -5249.36 -5266.86 -5276.47 -5282.65 -5300.05 -5306.17 -5311.66 -5317.91 -5316.46 -5323.05 -5327.01 -5314.44 -5301.19 -5301.00 -5285.47 -5285.86 -5290.00 -5289.48 -5296.19 -5293.23 -5314.42 -5312.69 -5324.15 -5326.06 -5315.39 -5313.12 -5316.55 -5306.10 -5305.50 -5300.05 -5261.60 -5237.57 -5212.57 -5198.24 -5177.14 -5139.61 -5097.85 -5069.98 -5042.64 -5018.04 -4957.81 -4833.03 -4764.63 -4625.19 -4463.20 -4386.06 -4308.07 -4190.35 -4038.86 -3872.12 -3751.73 -3680.98 -3605.51 -3522.53 -3387.51 -3253.51 -2961.93 -2828.17 -2646.26 -2195.55 -1223.49 -848.91 -556.79 -357.92 -274.77 -237.71 -171.07 -105.58 -41.69 35.68 39.43 11.24 -0.76 -32.15 -22.75 -24.45 -2.27 10.02 48.90 52.77 153.95 176.46 155.23 255.58 768.00 1105.04 1947.58 2241.44 2051.92 1655.48 1335.36 736.14 853.88 762.69 664.01 183.52 -24.47 -523.40 -725.30 -1074.44 -2169.89 -2601.93 -2446.77 -2331.18 -2425.65 -2500.02 -2843.16 -3014.15 -3408.39 -3701.77 -3849.13 -3896.87 -4027.62 -4122.86 -4195.44 -4288.03 -4328.84 -4356.05 -4408.34 -4432.43 -4445.65 -4459.52 -4469.67 -4474.00 -4472.74 -4464.35 -4455.47 -4440.64 -4425.14 -4403.58 -4387.35 -4353.11 -4326.02 -4296.86 -4260.51 -4235.84 -4212.70 -4184.50 -4184.54
-5272.20 -5271.75 -5284.23 -5297.13 -5302.23 -5323.42 -5325.68 -5326.39 -5336.45 -5343.52 -5353.41 -5361.95 -5362.35 -5348.08 -5327.25 -5320.82 -5329.84 -5327.09 -5329.16 -5324.79 -5330.09 -5332.40 -5336.88 -5338.25 -5348.09 -5349.70 -5347.14 -5347.60 -5344.95 -5333.75 -5331.65 -5322.81 -5309.39 -5273.62 -5240.56 -5208.13 -5189.46 -5153.27 -5138.76 -5125.66 -5068.78 -5038.80 -4989.97 -4879.27 -4771.99 -4606.22 -4473.42 -4387.36 -4326.09 -4200.80 -4057.89 -3861.84 -3805.52 -3684.22 -3616.90 -3565.95 -3474.30 -3314.21 -3058.21 -2883.90 -2625.85 -2310.00 -1949.76 -1424.71 -752.86 -430.47 -355.74 -290.97 -131.44 -17.23 46.06 71.61 96.68 100.57 83.51 47.85 27.12 29.53 40.41 55.31 113.93 433.20 533.23 403.49 667.97 941.55 1167.64 1226.53 1656.66 1663.02 1336.64 617.99 804.36 497.15 331.50 418.39 268.04 24.68 -756.60 -1875.30 -3007.11 -3832.02 -2831.81 -3055.67 -2809.78 -2946.63 -3154.82 -3073.58 -3453.02 -3447.36 -3662.73 -3932.27 -4028.12 -4044.51 -4086.65 -4162.49 -4239.96 -4312.68 -4347.60 -4386.33 -4417.24 -4433.59 -4448.36 -4459.36 -4460.03 -4465.66 -4459.87 -4448.42 -4435.13 -4423.41 -4398.97 -4385.35 -4361.74 -4329.04 -4302.99 -4267.31 -4238.70 -4213.94 -4186.80 -4158.78 -4158.82
