-217.07 -217.01 -217.01 -217.03 -217.03 -217.03 -217.03 -217.03 -217.03 -217.03 -217.03 -217.03 -217.03 -217.03 -217.03 -217.03 -217.03 -217.03 -217.03 -217.03 -217.03 -217.03 -217.03 -217.02 -217.02 -217.02 -215.36 -212.68 -192.65 -163.05 -84.81 -12.22 48.11 166.33 315.51 506.47 570.98 592.98 595.87 595.92 598.83 623.40 739.44 971.12 1312.98 1531.68 1592.04 1507.46 1389.29 1198.25 868.46 672.74 646.35 632.43 564.70 497.27 422.60 405.43 357.22 328.36 334.45 350.70 352.36 344.66 340.14 311.75 288.09 298.25 300.55 285.76 276.10 300.25 354.06 381.06 483.92 565.15 634.01 602.62 526.22 437.47 411.18 383.44 340.15 228.75 186.56 162.42 160.77 169.61 203.92 240.66 270.69 275.47 270.65 244.99 206.23 153.85 116.47 146.74 194.00 510.04 637.17 831.12 884.50 842.39 691.70 413.35 178.82 -26.16 -73.65 -140.16 -191.54 -197.92 -226.53 -388.03 -1196.44 -2093.02 -3275.38 -3827.40 -3984.76 -4002.14 -4002.00 -4002.00 -4002.00 -4002.00 -4002.00 -4002.00 -4002.00 -4002.00 -4002.00 -4002.00 -4002.00 -4002.00 -4002.00 -4002.00 -4002.00 -4002.00 -4002.00 -4002.00 -4001.99 -4001.98 -4002.05
-217.07 -217.01 -217.01 -217.03 -217.03 -217.03 -217.03 -217.03 -217.03 -217.03 -217.03 -217.03 -217.03 -217.03 -217.03 -217.03 -217.03 -217.03 -217.03 -217.03 -217.03 -217.03 -217.02 -217.02 -217.03 -216.55 -210.03 -201.93 -178.88 -136.49 -35.49 79.30 137.08 198.66 376.86 503.64 585.07 595.85 596.14 596.82 600.95 617.00 799.50 1036.46 1445.16 1618.44 1691.11 1657.62 1550.52 1330.16 978.21 777.70 666.95 640.65 600.09 554.00 501.70 476.40 426.98 408.80 402.04 393.59 401.47 394.94 382.63 386.63 382.27 361.30 375.80 370.04 354.28 356.43 371.99 400.64 491.60 550.99 642.19 610.21 521.46 435.02 411.40 385.67 345.12 255.66 184.59 164.32 161.58 177.94 208.08 249.00 274.06 274.57 271.62 205.62 150.55 100.77 81.59 108.45 203.91 378.19 763.75 856.99 923.38 879.74 692.51 539.70 289.04 84.03 -36.85 -122.87 -171.77 -191.19 -217.75 -306.61 -958.82 -1931.71 -3201.18 -3780.46 -3987.52 -4002.06 -4002.00 -4002.00 -4002.00 -4002.00 -4002.00 -4002.00 -4002.00 -4002.00 -4002.00 -4002.00 -4002.00 -4002.00 -4002.00 -4002.00 -4002.00 -4002.00 -4002.00 -4002.00 -4001.99 -4001.98 -4002.05
-217.07 -217.01 -217.01 -217.03 -217.03 -217.03 -217.03 -217.03 -217.03 -217.03 -217.03 -217.03 -217.03 -217.03 -217.03 -217.03 -217.03 -217.03 -217.03 -217.03 -217.03 -217.03 -217.02 -216.88 -216.61 -213.37 -200.04 -170.18 -144.70 -45.53 38.72 145.01 188.09 300.89 425.00 571.05 589.31 595.97 597.41 602.08 614.47 660.81 825.98 1156.91 1508.18 1678.87 1702.36 1689.30 1632.75 1434.10 1133.02 939.04 675.28 648.71 629.56 607.12 563.88 530.86 502.79 491.37 444.33 432.68 416.14 410.03 404.49 401.57 399.06 394.84 389.34 365.70 356.33 330.87 376.64 401.87 478.59 549.93 639.51 621.72 534.52 435.42 405.04 379.87 358.38 288.53 195.41 162.42 161.20 174.61 217.33 250.42 270.49 270.77 247.64 186.41 128.97 82.21 71.23 103.79 219.34 501.63 729.74 881.13 927.23 879.28 651.33 512.56 335.10 258.53 134.71 -46.39 -139.85 -188.14 -207.28 -318.85 -930.78 -2073.90 -3242.90 -3845.50 -3990.56 -4002.27 -4002.08 -4002.00 -4002.00 -4002.00 -4002.00 -4002.00 -4002.00 -4002.00 -4002.00 -4002.00 -4002.00 -4002.00 -4002.00 -4002.00 -4002.00 -4002.00 -4002.00 -4002.00 -4001.99 -4001.98 -4002.05
-217.08 -217.00 -217.02 -217.03 -217.03 -217.03 -217.03 -217.03 -217.03 -217.03 -217.03 -217.03 -217.03 -217.03 -217.03 -217.03 -217.03 -217.03 -217.03 -217.03 -217.03 -217.03 -216.80 -214.96 -213.18 -192.97 -168.21 -86.66 -62.50 -17.31 85.34 154.29 266.50 322.30 501.02 566.82 592.97 597.43 599.45 626.81 678.16 753.19 882.17 1222.48 1491.74 1672.47 1703.37 1704.41 1684.14 1554.41 1317.59 964.91 719.16 659.98 642.79 633.52 618.78 588.16 570.20 540.64 512.56 453.70 451.48 426.38 406.46 402.72 396.21 386.98 343.34 322.69 293.88 289.07 309.89 354.03 423.41 542.89 634.53 616.65 509.17 391.42 369.90 354.46 346.49 284.48 201.99 162.48 161.12 170.36 199.09 236.23 264.17 262.80 233.87 164.55 105.33 70.30 69.16 92.55 229.04 528.91 772.57 905.98 907.12 817.42 647.86 391.85 276.05 234.58 208.28 55.71 -75.80 -161.03 -205.43 -381.75 -889.96 -2085.97 -3292.74 -3787.84 -3983.14 -4002.12 -4002.01 -4002.00 -4002.00 -4002.00 -4002.00 -4002.00 -4002.00 -4002.00 -4002.00 -4002.00 -4002.00 -4002.00 -4002.00 -4002.00 -4002.00 -4002.00 -4002.00 -4002.00 -4001.99 -4001.97 -4002.05
-217.08 -217.01 -217.02 -217.02 -217.03 -217.03 -217.03 -217.03 -217.03 -217.03 -217.03 -217.03 -217.03 -217.03 -217.03 -217.03 -217.03 -217.03 -217.03 -217.03 -217.03 -217.04 -215.46 -212.33 -190.00 -170.22 -127.47 -57.04 -21.20 23.31 79.87 186.57 342.54 435.17 497.03 575.54 594.07 599.07 614.09 665.52 840.64 927.89 982.42 1208.23 1461.82 1669.77 1698.24 1702.90 1697.54 1651.73 1285.69 1067.23 752.70 656.56 646.39 641.87 641.10 629.83 613.50 591.34 576.74 536.15 506.61 456.70 429.80 390.28 362.86 285.22 250.59 211.55 183.39 186.30 223.15 277.91 382.25 467.92 603.65 593.78 502.91 337.14 272.62 291.81 294.35 257.09 196.84 164.41 159.51 166.08 189.99 222.36 242.33 243.77 201.62 137.22 93.35 67.89 68.23 104.20 256.53 534.71 796.86 910.37 891.02 737.85 444.54 293.31 208.27 230.81 204.33 81.36 10.99 -135.53 -183.28 -311.84 -710.95 -1740.20 -2885.11 -3789.95 -3991.45 -4002.36 -4002.00 -4002.00 -4002.00 -4002.00 -4002.00 -4002.00 -4002.00 -4002.00 -4002.00 -4002.00 -4002.00 -4002.00 -4002.00 -4002.00 -4002.00 -4002.00 -4002.00 -4002.00 -4001.99 -4001.98 -4002.05
-217.08 -217.01 -217.02 -217.03 -217.03 -217.03 -217.03 -217.03 -217.03 -217.03 -217.03 -217.03 -217.03 -217.03 -217.03 -217.03 -217.03 -217.03 -217.01 -216.98 -216.38 -213.40 -199.92 -194.48 -151.96 -93.39 -50.56 -4.68 20.90 58.15 112.70 225.06 368.27 500.56 561.66 593.36 595.86 598.06 621.42 729.33 901.60 1117.67 1147.15 1178.20 1346.36 1580.95 1671.04 1702.58 1695.85 1640.04 1459.18 1010.54 802.31 666.27 646.15 645.02 644.35 641.77 642.73 634.51 619.96 587.13 568.42 492.80 429.82 357.71 300.64 215.03 167.14 119.94 102.44 101.42 111.42 173.21 259.85 360.13 530.19 536.78 452.68 283.20 231.07 185.75 227.37 217.30 183.92 163.83 157.47 160.05 172.92 196.45 211.10 207.93 190.63 124.62 83.79 64.31 65.34 112.29 284.55 474.32 681.58 871.51 851.63 605.84 361.65 223.71 160.56 203.42 231.34 187.64 13.19 -97.28 -187.92 -265.78 -759.03 -1543.92 -3030.13 -3710.36 -3933.09 -4002.20 -4001.99 -4002.00 -4002.00 -4002.00 -4002.00 -4002.00 -4002.00 -4002.00 -4002.00 -4002.00 -4002.00 -4002.00 -4002.00 -4002.00 -4002.00 -4002.00 -4002.00 -4002.00 -4001.99 -4001.98 -4002.05
-217.08 -217.01 -217.02 -217.03 -217.03 -217.03 -217.03 -217.03 -217.03 -217.03 -217.03 -217.03 -217.03 -217.03 -217.03 -217.03 -217.03 -217.03 -216.84 -214.61 -209.20 -195.80 -178.79 -131.90 -55.18 -38.78 33.01 66.13 134.92 199.00 239.78 323.54 426.80 548.43 579.86 594.94 598.39 607.26 644.52 797.10 1064.09 1198.79 1218.48 1172.51 1251.93 1489.34 1635.44 1693.78 1690.18 1609.77 1440.22 1033.01 767.56 670.49 645.55 644.97 644.99 645.01 644.39 643.08 641.30 632.72 605.25 522.43 417.62 296.84 186.79 127.27 92.37 80.11 69.96 68.15 82.96 93.65 181.99 237.58 365.09 436.37 349.33 218.44 125.29 92.55 151.81 169.24 163.94 159.73 157.22 158.18 163.96 175.49 182.51 179.82 170.42 124.20 84.76 70.39 62.25 76.63 154.10 313.27 541.71 720.69 754.93 634.82 285.40 138.17 108.55 141.71 218.16 194.02 72.20 -98.00 -185.21 -264.38 -746.54 -1400.11 -2788.30 -3700.17 -3931.91 -4000.21 -4001.99 -4002.00 -4002.00 -4002.00 -4002.00 -4002.00 -4002.00 -4002.00 -4002.00 -4002.00 -4002.00 -4002.00 -4002.00 -4002.00 -4002.00 -4002.00 -4002.00 -4002.00 -4001.99 -4001.98 -4002.05
-217.08 -217.00 -217.02 -217.03 -217.03 -217.03 -217.03 -217.03 -217.03 -217.03 -217.03 -217.03 -217.03 -217.03 -217.03 -217.03 -217.03 -217.04 -216.78 -207.11 -182.02 -127.69 -47.43 1.66 22.64 59.30 120.30 184.39 274.88 340.31 373.70 443.78 538.27 583.06 590.55 598.82 608.36 640.39 684.67 826.22 1106.51 1250.44 1264.50 1167.85 1166.67 1377.34 1572.98 1654.23 1652.13 1586.05 1285.24 966.81 758.53 667.71 645.17 644.97 644.99 645.00 645.01 644.94 644.59 642.41 621.42 517.03 336.73 231.44 122.15 82.91 69.45 58.43 54.57 52.17 55.86 70.97 95.75 163.17 184.82 241.62 225.95 157.12 76.30 61.25 77.50 133.81 146.78 150.35 156.52 156.79 158.57 160.81 164.84 163.15 153.74 130.25 94.15 70.90 61.03 61.19 95.13 181.34 330.99 536.67 610.08 457.15 290.93 131.42 98.16 133.84 188.97 177.88 54.30 -76.35 -172.48 -220.96 -410.94 -1651.16 -2392.24 -3609.63 -3869.49 -3997.36 -4002.03 -4002.00 -4002.00 -4002.00 -4002.00 -4002.00 -4002.00 -4002.00 -4002.00 -4002.00 -4002.00 -4002.00 -4002.00 -4002.00 -4002.00 -4002.00 -4002.00 -4002.00 -4001.99 -4001.98 -4002.05
-217.08 -217.01 -217.02 -217.03 -217.03 -217.03 -217.03 -217.03 -217.03 -217.03 -217.03 -217.03 -217.03 -217.03 -217.03 -217.03 -216.92 -216.60 -204.31 -187.64 -115.38 -4.81 77.72 130.69 117.61 152.26 223.00 309.17 389.73 479.46 491.28 554.29 573.97 591.80 597.33 599.37 624.70 660.83 747.77 896.65 1117.68 1263.18 1274.63 1159.38 1115.94 1252.50 1395.09 1449.76 1452.25 1414.77 1142.23 902.30 701.13 652.88 645.18 644.99 644.99 644.99 645.04 645.16 644.63 640.94 607.55 491.77 277.14 141.13 80.68 66.90 58.54 51.77 48.30 46.98 47.03 50.12 55.83 75.79 124.68 129.47 122.81 61.64 40.10 44.52 59.33 86.99 129.24 141.37 152.26 156.24 156.79 157.58 157.40 156.13 149.21 126.41 106.65 70.78 57.89 50.44 57.46 104.35 196.39 306.43 385.64 318.18 220.29 96.33 79.31 112.74 165.01 154.79 54.02 -127.62 -164.99 -214.23 -410.39 -1324.51 -2399.76 -3437.32 -3839.37 -3990.67 -4002.09 -4002.01 -4002.00 -4002.00 -4002.00 -4002.00 -4002.00 -4002.00 -4002.00 -4002.00 -4002.00 -4002.00 -4002.00 -4002.00 -4002.00 -4002.00 -4002.00 -4002.00 -4001.99 -4001.98 -4002.05
-217.07 -217.00 -217.01 -217.03 -217.04 -217.03 -217.03 -217.03 -217.03 -217.03 -217.03 -217.02 -217.02 -217.02 -217.01 -217.03 -216.14 -212.35 -185.17 -107.14 21.56 113.93 259.06 245.95 202.44 237.25 334.01 444.32 527.98 569.77 587.25 589.51 591.80 596.19 604.19 620.81 660.23 739.23 868.99 925.89 1160.20 1210.22 1207.98 1128.36 1040.83 1114.80 1146.26 1207.82 1177.32 1113.44 997.13 818.49 659.10 647.27 645.11 644.95 644.96 645.01 645.60 649.72 647.79 639.02 602.99 439.99 284.89 105.53 75.01 58.47 54.51 46.24 41.27 40.32 40.51 41.86 46.44 50.68 58.37 61.87 57.46 36.52 21.42 18.74 25.42 68.90 90.44 119.74 143.17 150.17 155.50 153.76 153.98 150.34 141.96 117.72 100.64 71.42 46.90 38.90 40.12 55.33 86.48 140.79 235.57 223.54 114.46 68.05 63.84 106.81 169.55 156.66 24.50 -120.66 -183.04 -209.93 -359.57 -862.03 -1864.33 -3166.64 -3816.89 -3973.72 -4002.13 -4002.00 -4002.00 -4002.00 -4002.00 -4002.00 -4002.00 -4002.00 -4002.00 -4002.00 -4002.00 -4002.00 -4002.00 -4002.00 -4002.00 -4002.00 -4002.00 -4002.00 -4001.99 -4001.98 -4002.05
-217.00 -216.93 -216.97 -217.01 -217.03 -217.04 -217.04 -217.03 -217.03 -217.02 -217.02 -217.02 -217.15 -217.34 -217.30 -217.55 -215.91 -194.85 -154.35 6.46 48.88 352.67 324.79 324.37 298.33 350.58 440.42 532.29 581.42 591.88 593.20 595.52 597.24 603.21 622.36 675.31 715.12 843.38 934.46 994.26 1081.76 1120.31 1127.02 1067.83 1023.44 985.00 952.60 1011.83 920.10 892.06 780.26 696.48 654.04 645.32 644.97 645.20 645.39 646.91 657.10 669.71 681.40 670.30 619.95 409.61 233.90 114.67 78.67 58.61 53.98 49.17 40.42 37.96 37.19 37.42 38.52 40.61 43.05 44.19 37.03 28.22 16.87 9.85 9.60 26.06 55.62 97.75 107.52 135.86 145.14 146.00 142.56 139.52 132.14 112.53 90.32 56.14 43.94 33.17 30.39 33.02 51.37 64.54 71.58 87.32 70.96 46.74 52.37 106.45 162.87 153.20 25.67 -129.73 -185.34 -205.26 -312.69 -949.81 -1724.18 -2843.90 -3698.77 -3972.15 -4001.66 -4002.00 -4002.00 -4002.00 -4002.00 -4002.00 -4002.00 -4002.00 -4002.00 -4002.00 -4002.00 -4002.00 -4002.00 -4002.00 -4002.00 -4002.00 -4002.00 -4002.00 -4001.99 -4001.98 -4002.06
-216.86 -216.78 -216.81 -216.96 -216.99 -217.05 -217.05 -217.03 -216.95 -217.22 -217.99 -219.16 -221.26 -231.88 -236.11 -233.30 -228.52 -182.38 -84.02 78.13 358.22 478.65 443.49 443.79 430.22 451.54 525.25 572.27 590.26 595.52 596.13 598.45 601.72 639.09 668.10 721.19 859.47 926.14 987.59 1018.40 1032.90 1043.93 1044.37 1032.10 1007.79 936.47 844.30 753.17 721.07 715.74 661.34 655.87 646.86 646.33 647.82 647.17 648.91 672.90 701.26 729.23 761.43 783.98 713.86 495.60 327.42 224.30 121.60 77.48 62.36 50.89 44.58 40.82 39.06 36.71 36.51 37.01 37.31 35.25 33.17 28.95 12.93 8.71 7.27 14.01 27.61 54.56 86.92 105.61 118.18 117.64 116.31 107.01 97.92 81.13 65.18 44.40 34.48 30.10 29.01 30.20 33.90 44.25 44.30 40.61 41.74 24.23 42.97 96.95 157.91 116.72 -4.98 -126.41 -182.64 -194.81 -288.78 -613.42 -1528.13 -2638.24 -3626.41 -3938.71 -3994.45 -4002.02 -4002.00 -4002.00 -4002.00 -4002.00 -4002.00 -4002.00 -4002.00 -4002.00 -4002.00 -4002.00 -4002.00 -4002.00 -4002.00 -4002.00 -4002.00 -4002.00 -4001.99 -4001.97 -4002.06
-216.80 -216.72 -216.62 -216.68 -216.86 -217.05 -217.05 -217.86 -218.77 -226.68 -232.04 -284.55 -291.54 -281.38 -313.62 -333.25 -312.09 -168.14 -4.08 177.31 455.85 539.89 536.82 541.72 502.02 543.93 572.79 587.20 594.18 595.98 597.14 600.64 630.16 651.78 769.11 838.66 921.52 994.65 1003.35 1012.44 1018.60 1025.95 1018.35 1013.30 1001.41 959.76 819.79 731.05 663.97 651.50 648.92 646.17 646.56 649.43 656.62 676.93 689.81 740.77 789.70 876.15 984.05 948.85 868.23 743.32 664.44 400.38 262.28 146.01 89.71 58.32 51.68 44.37 40.57 37.81 36.71 36.23 36.15 35.10 31.63 26.75 19.78 14.15 10.69 9.21 14.10 27.04 46.22 65.12 95.06 86.96 75.62 68.67 59.42 61.47 43.53 35.11 31.00 29.27 27.77 27.91 31.44 35.06 32.46 23.31 12.98 4.31 19.68 85.86 139.53 126.37 -32.97 -107.36 -191.31 -194.96 -277.60 -591.58 -1566.02 -2889.68 -3548.91 -3907.68 -3996.14 -4001.28 -4002.00 -4002.00 -4002.00 -4002.00 -4002.00 -4002.00 -4002.00 -4002.00 -4002.00 -4002.00 -4002.00 -4002.00 -4002.00 -4002.00 -4002.00 -4002.00 -4001.99 -4001.98 -4002.06
-217.69 -217.61 -216.48 -216.90 -217.97 -219.38 -224.92 -227.57 -232.20 -302.65 -337.78 -382.54 -569.00 -681.10 -768.65 -697.60 -666.38 -421.28 -62.33 235.23 490.42 569.42 576.75 568.94 576.25 582.81 589.76 595.29 595.80 595.97 598.38 607.16 637.53 752.53 855.50 921.40 989.24 1004.01 1011.17 1012.94 1013.40 1013.48 1013.32 1012.21 996.81 968.51 850.34 724.12 668.25 649.83 645.64 647.39 659.91 694.89 706.77 731.62 752.24 845.53 963.97 1063.36 1138.56 1082.11 1081.17 1004.19 869.58 693.09 500.36 246.21 106.22 64.19 54.20 53.71 45.49 39.26 37.95 36.14 35.98 35.46 33.39 30.59 25.41 23.34 15.96 13.19 13.95 18.34 28.26 38.06 47.21 52.27 44.49 38.71 38.57 33.75 34.65 29.74 27.91 25.85 26.06 25.11 27.03 27.42 20.88 6.10 -3.00 -1.57 12.32 68.44 128.30 111.93 5.65 -145.08 -186.17 -195.64 -225.63 -542.88 -1011.49 -2740.91 -3381.78 -3877.04 -3993.40 -4002.11 -4002.00 -4002.00 -4002.00 -4002.00 -4002.00 -4002.00 -4002.00 -4002.00 -4002.00 -4002.00 -4002.00 -4002.00 -4002.00 -4002.00 -4002.00 -4002.00 -4001.99 -4001.98 -4002.06
-222.31 -221.79 -222.50 -232.32 -238.84 -246.66 -336.23 -352.01 -424.56 -535.95 -613.14 -847.51 -1342.01 -1332.59 -1437.33 -1575.11 -1324.89 -794.21 -256.59 199.94 423.89 563.95 578.73 582.43 591.05 595.58 595.56 595.91 595.99 595.93 599.10 609.14 694.11 818.41 918.63 968.98 1000.98 1010.94 1012.62 1013.00 1013.00 1012.99 1013.00 1012.87 1001.85 946.40 865.15 760.81 673.83 646.46 645.38 649.99 685.29 765.60 831.32 911.58 975.02 1034.66 1116.67 1169.39 1215.58 1224.93 1194.79 1188.65 1136.81 1017.84 569.51 323.02 150.63 71.98 59.38 56.15 50.13 45.20 39.48 36.57 36.17 35.75 34.72 32.04 30.00 26.14 21.60 14.77 13.23 13.43 18.17 26.15 25.68 26.80 27.23 24.82 25.77 26.18 26.70 26.27 23.61 23.27 21.15 20.00 18.13 12.89 4.90 0.04 -5.58 -6.85 7.64 42.60 95.84 78.75 -40.22 -148.61 -180.54 -203.31 -261.36 -658.39 -1567.68 -2425.99 -3560.80 -3928.97 -3987.38 -4001.36 -4002.00 -4002.00 -4002.00 -4002.00 -4002.00 -4002.00 -4002.00 -4002.00 -4002.00 -4002.00 -4002.00 -4002.00 -4002.00 -4002.00 -4002.00 -4002.00 -4001.99 -4001.98 -4002.06
-275.47 -275.34 -298.66 -338.04 -368.02 -417.02 -578.96 -640.37 -767.15 -1205.46 -1614.58 -1818.82 -2203.88 -2660.11 -2634.31 -2575.73 -2265.40 -1688.43 -665.28 -78.14 237.98 475.56 547.42 576.86 578.76 593.75 594.97 595.72 595.98 596.14 602.55 642.57 721.43 841.78 935.04 995.97 1012.21 1012.65 1012.97 1013.00 1013.00 1013.00 1012.94 1011.65 999.93 928.28 850.44 756.65 660.12 648.82 646.52 668.91 712.54 823.62 981.36 1000.41 1115.13 1170.60 1196.28 1220.35 1237.83 1240.38 1238.64 1231.89 1212.69 1129.87 772.76 345.19 173.32 73.25 62.35 59.33 55.03 50.88 43.89 38.36 36.55 35.99 35.77 33.87 32.38 29.26 25.11 19.30 15.67 12.76 14.01 15.59 17.20 18.15 17.41 17.61 17.51 21.27 21.74 19.78 17.12 12.23 12.80 4.16 3.94 0.24 -3.80 -6.24 -9.19 -8.17 -3.12 26.70 77.92 53.89 -39.73 -134.34 -187.61 -210.59 -397.12 -747.33 -1829.18 -2623.04 -3567.30 -3947.16 -3987.69 -4002.00 -4002.00 -4002.00 -4002.00 -4002.00 -4002.00 -4002.00 -4002.00 -4002.00 -4002.00 -4002.00 -4002.00 -4002.00 -4002.00 -4002.00 -4002.00 -4002.00 -4001.99 -4001.98 -4002.06
-535.97 -533.63 -622.00 -834.23 -895.68 -920.75 -1140.26 -1493.21 -1668.09 -2043.09 -2579.31 -3078.54 -3187.19 -3283.50 -3588.10 -3228.36 -3061.99 -2555.96 -1506.25 -642.50 111.54 301.55 395.02 500.60 519.00 561.24 585.29 593.12 595.54 597.78 606.82 660.80 748.37 888.15 977.42 1004.36 1012.90 1013.00 1013.00 1013.00 1013.00 1013.00 1012.65 1007.80 993.52 890.49 793.33 714.01 658.82 629.31 637.60 664.32 751.39 919.75 1101.24 1158.10 1202.11 1228.75 1237.73 1242.73 1244.22 1244.53 1244.73 1242.06 1226.40 1114.73 945.83 430.57 178.94 92.36 66.68 62.06 59.03 54.92 48.72 40.89 38.02 36.90 35.95 34.84 33.38 30.40 27.10 22.99 17.88 13.80 12.03 12.28 13.68 14.05 14.30 15.97 17.83 18.77 13.34 9.42 4.61 3.21 -0.32 -1.72 -1.69 -5.85 -7.45 -9.36 -9.93 -9.58 -5.91 23.32 30.11 44.03 -32.96 -136.38 -185.13 -222.83 -441.85 -782.92 -2271.16 -3065.09 -3777.10 -3930.40 -3995.33 -4002.00 -4002.00 -4002.00 -4002.00 -4002.00 -4002.00 -4002.00 -4002.00 -4002.00 -4002.00 -4002.00 -4002.00 -4002.00 -4002.00 -4002.00 -4002.00 -4002.00 -4001.99 -4001.98 -4002.06
-1263.30 -1262.38 -1520.50 -1545.60 -1656.45 -1961.20 -2108.11 -2487.95 -2882.96 -3236.50 -3292.24 -3490.48 -3683.54 -3849.73 -3919.25 -3849.23 -3638.99 -3015.15 -2001.50 -1260.69 -314.83 -25.02 189.72 323.48 429.04 506.63 562.52 585.74 595.77 601.60 621.25 724.56 816.37 928.06 984.78 1010.69 1013.03 1013.00 1013.00 1013.00 1013.00 1013.00 1012.38 1005.25 990.13 870.31 781.24 660.88 612.50 590.42 608.59 605.63 733.67 897.00 1054.83 1180.54 1224.21 1238.53 1244.94 1244.94 1245.00 1245.00 1245.00 1244.31 1233.44 1165.96 890.28 745.83 369.27 189.89 117.96 85.53 62.45 59.63 52.88 45.13 40.55 37.83 36.33 35.68 33.95 31.71 28.76 25.82 20.27 15.93 13.25 12.51 12.74 14.04 16.96 18.88 20.40 16.47 9.07 5.22 -3.14 -6.11 -6.21 -8.02 -9.14 -9.59 -9.67 -9.92 -9.98 -9.76 -8.75 9.97 22.22 17.14 -69.13 -120.61 -184.82 -264.49 -555.43 -1194.90 -2419.74 -3362.03 -3839.33 -3952.79 -4000.92 -4001.99 -4002.00 -4002.00 -4002.00 -4002.00 -4002.00 -4002.00 -4002.00 -4002.00 -4002.00 -4002.00 -4002.00 -4002.00 -4002.00 -4002.00 -4002.00 -4002.00 -4001.99 -4001.98 -4002.06
-2387.40 -2385.73 -2436.30 -2688.66 -2631.22 -3133.66 -3180.79 -3417.82 -3466.44 -3712.02 -3876.41 -3909.41 -3951.82 -3982.39 -3978.05 -3972.04 -3866.93 -3518.10 -2510.95 -1795.36 -828.75 -232.73 -32.02 151.54 257.90 365.07 489.76 565.15 586.01 602.26 625.82 770.08 857.81 954.11 995.58 1011.53 1012.91 1013.00 1013.00 1013.00 1013.00 1012.47 1007.57 993.17 948.06 835.09 701.70 571.25 527.38 520.81 566.84 569.69 624.12 803.45 951.25 1162.21 1202.25 1240.25 1244.69 1245.00 1245.00 1245.00 1245.00 1244.68 1243.92 1222.48 1077.40 877.05 567.48 435.33 289.56 176.68 94.18 82.21 58.41 52.34 48.45 41.12 38.33 36.37 35.20 33.05 29.32 27.68 25.08 19.84 17.45 15.76 16.05 18.22 22.59 25.54 21.23 14.30 4.67 -5.15 -7.85 -9.01 -9.19 -8.92 -9.30 -9.93 -9.99 -9.99 -10.00 -9.99 -9.38 -8.95 -1.42 -27.75 -77.80 -137.58 -190.61 -310.02 -593.83 -1738.96 -2735.38 -3477.40 -3874.70 -3996.33 -4002.14 -4002.02 -4002.00 -4002.00 -4002.00 -4002.00 -4002.00 -4002.00 -4002.00 -4002.00 -4002.00 -4002.00 -4002.00 -4002.00 -4002.00 -4002.00 -4002.00 -4002.00 -4001.99 -4001.98 -4002.07
-3372.87 -3370.97 -3416.82 -3327.70 -3487.97 -3543.11 -3673.54 -3804.59 -3898.69 -3964.84 -3972.66 -3992.30 -3997.26 -4001.40 -4000.81 -4000.16 -3976.79 -3785.98 -3371.26 -2243.24 -1101.51 -446.98 -173.04 -59.55 66.33 190.52 344.44 500.30 553.48 611.12 648.76 796.98 908.78 970.21 1009.08 1012.68 1012.97 1013.01 1013.01 1012.96 1012.92 1012.18 1006.28 964.73 914.37 772.67 624.63 487.26 431.25 408.04 416.01 471.06 528.89 640.68 884.41 1062.68 1189.73 1234.50 1244.69 1245.01 1245.00 1245.00 1245.00 1244.94 1244.85 1238.20 1180.71 1096.13 887.75 701.79 507.44 400.15 221.09 118.30 84.24 58.24 53.30 46.12 43.36 38.64 37.04 34.09 31.79 29.20 25.48 24.34 22.21 20.89 20.35 21.66 28.88 31.65 25.10 7.67 -1.70 -6.56 -9.11 -5.98 -1.93 -3.08 -7.74 -9.50 -10.00 -10.00 -10.00 -9.99 -9.95 -9.82 -11.15 -37.81 -78.00 -147.38 -208.40 -345.10 -1145.32 -1843.35 -2991.52 -3745.70 -3973.08 -3998.80 -4002.03 -4002.00 -4002.00 -4002.00 -4002.00 -4002.00 -4002.00 -4002.00 -4002.00 -4002.00 -4002.00 -4002.00 -4002.00 -4002.00 -4002.00 -4002.00 -4002.00 -4002.00 -4001.99 -4001.98 -4002.07
-3860.50 -3859.11 -3836.07 -3830.27 -3899.66 -3942.60 -3946.74 -3964.71 -3988.92 -3995.04 -4000.93 -4001.81 -4002.02 -4002.02 -4002.01 -4001.78 -3976.30 -3874.47 -3598.23 -2211.42 -1797.05 -690.89 -273.78 -175.86 -127.87 33.06 211.45 414.97 534.57 592.78 689.73 785.25 920.81 973.16 1008.05 1011.33 1011.02 1011.40 1010.73 1011.58 1011.48 1008.88 995.55 914.67 817.89 647.29 549.89 437.14 351.82 339.66 353.51 397.47 445.01 547.41 720.38 1005.91 1116.49 1232.72 1242.36 1245.01 1245.00 1245.00 1245.00 1245.00 1244.80 1243.27 1230.36 1185.70 1119.56 1022.03 774.82 678.55 485.24 251.27 145.49 69.56 60.60 50.93 47.21 43.02 39.74 37.03 33.40 30.62 28.63 26.83 25.51 24.64 25.29 28.56 31.16 32.91 23.30 5.71 -2.55 -8.53 -8.41 7.69 39.93 37.14 17.69 -2.51 -9.60 -10.01 -10.00 -10.00 -10.01 -9.97 -12.98 -19.27 -93.52 -143.81 -206.34 -396.35 -1072.25 -2352.28 -3511.01 -3857.27 -3983.28 -4001.73 -4002.00 -4002.00 -4002.00 -4002.00 -4002.00 -4002.00 -4002.00 -4002.00 -4002.00 -4002.00 -4002.00 -4002.00 -4002.00 -4002.00 -4002.00 -4002.00 -4002.00 -4002.00 -4001.99 -4001.97 -4002.07
-3991.77 -3991.05 -3984.49 -3981.77 -3990.93 -3998.16 -3998.27 -3999.06 -4001.97 -4001.95 -4002.01 -4002.00 -4002.00 -4002.00 -4002.00 -4001.71 -3984.76 -3931.97 -3546.25 -2678.03 -1396.30 -687.02 -337.15 -188.20 -168.21 -78.11 114.51 264.99 436.78 528.75 658.68 787.03 893.09 967.94 967.96 974.80 1000.54 1002.12 997.60 993.09 988.18 972.79 924.00 845.57 731.95 624.31 506.59 394.19 340.82 319.49 318.06 336.11 366.56 499.93 685.27 837.20 1105.17 1219.09 1240.93 1245.04 1245.01 1245.00 1245.00 1245.00 1244.99 1244.99 1242.99 1230.89 1216.31 1184.54 1153.70 991.69 641.96 419.74 179.87 82.51 72.40 62.35 53.60 53.18 52.74 43.83 38.64 32.59 30.53 27.96 27.53 27.36 28.33 30.92 34.12 36.05 22.42 5.55 -5.11 -7.63 1.18 44.82 67.66 92.21 57.35 18.59 -9.14 -10.02 -10.01 -10.00 -10.00 -10.32 -11.63 -24.70 -72.61 -121.17 -275.47 -584.47 -1494.59 -2480.09 -3421.46 -3886.19 -3979.37 -4001.82 -4002.00 -4002.00 -4002.00 -4002.00 -4002.00 -4002.00 -4002.00 -4002.00 -4002.00 -4002.00 -4002.00 -4002.00 -4002.00 -4002.00 -4002.00 -4002.00 -4002.00 -4002.00 -4001.99 -4001.97 -4002.07
-4001.86 -4001.64 -3999.98 -4000.80 -4001.18 -4001.81 -4002.06 -4002.03 -4002.03 -4002.00 -4002.00 -4002.00 -4002.00 -4002.00 -4002.01 -4000.70 -3980.21 -3793.50 -3384.20 -2628.05 -1567.88 -694.21 -378.48 -206.63 -199.92 -133.76 -79.40 89.33 290.51 447.90 635.58 712.93 791.82 871.76 913.89 943.77 929.49 938.10 945.06 922.52 935.95 908.08 852.49 770.42 661.17 571.15 484.54 384.65 338.22 314.77 310.42 313.09 326.13 379.25 513.23 783.24 1053.53 1203.52 1236.92 1243.53 1245.01 1245.00 1245.00 1245.00 1245.00 1245.02 1244.96 1243.58 1239.38 1227.53 1189.79 1133.44 872.81 490.51 268.29 172.64 120.57 76.21 76.78 80.58 63.55 67.33 47.95 41.68 31.58 30.00 28.54 28.02 28.54 31.79 36.09 35.38 22.40 4.28 -6.76 -2.23 33.94 118.94 217.01 228.60 77.65 22.33 -8.89 -9.77 -10.01 -10.00 -10.00 -10.33 -13.11 -20.15 -54.05 -108.09 -161.05 -570.19 -1416.91 -2747.51 -3489.16 -3933.24 -3989.06 -4001.23 -4002.01 -4002.00 -4002.00 -4002.00 -4002.00 -4002.00 -4002.00 -4002.00 -4002.00 -4002.00 -4002.00 -4002.00 -4002.00 -4002.00 -4002.00 -4002.00 -4002.00 -4002.00 -4001.99 -4001.97 -4002.07
-4001.44 -4001.35 -4001.44 -4001.64 -4001.88 -4001.96 -4002.02 -4002.02 -4002.01 -4002.00 -4002.00 -4002.00 -4002.00 -4002.00 -4002.01 -3995.40 -3921.73 -3642.87 -3174.43 -2300.67 -910.49 -487.94 -301.45 -208.95 -203.86 -187.35 -142.32 -43.74 112.65 297.27 514.55 625.27 707.95 768.18 837.49 821.52 817.06 827.03 820.46 815.17 802.46 763.99 739.83 682.90 555.33 524.01 447.02 371.09 336.50 313.65 310.44 311.91 318.41 378.05 468.84 667.12 946.94 1119.16 1207.88 1233.37 1244.75 1244.50 1244.83 1244.98 1244.54 1244.66 1244.19 1239.84 1224.48 1205.41 1151.40 1085.75 876.07 549.48 418.05 261.47 202.36 190.16 179.88 134.08 144.84 142.15 83.81 53.41 37.30 32.58 29.16 28.70 29.61 33.13 38.59 34.36 21.79 1.53 -5.86 18.00 85.87 252.74 360.71 296.26 169.36 6.18 -3.20 -9.65 -10.01 -10.00 -10.00 -10.03 -10.73 -17.84 -37.13 -91.27 -199.47 -692.20 -1289.94 -2235.05 -3684.32 -3840.09 -3981.26 -4001.01 -4002.04 -4002.00 -4002.00 -4002.00 -4002.00 -4002.00 -4002.00 -4002.00 -4002.00 -4002.00 -4002.00 -4002.00 -4002.00 -4002.00 -4002.00 -4002.00 -4002.00 -4002.00 -4001.99 -4001.97 -4002.07
-4001.79 -4001.69 -4001.73 -4001.91 -4002.00 -4002.02 -4002.02 -4002.01 -4002.00 -4002.00 -4002.00 -4002.00 -4002.00 -4002.00 -4002.08 -3983.14 -3877.20 -3527.60 -2510.88 -1418.29 -698.67 -315.62 -236.22 -206.55 -204.67 -199.96 -173.19 -151.67 -36.46 124.24 316.69 515.50 593.11 632.64 678.64 658.88 689.06 721.20 703.46 686.28 687.73 661.79 607.68 547.35 521.73 456.12 391.41 347.41 324.38 320.55 320.13 334.20 340.61 371.17 474.62 664.74 901.70 1061.35 1170.51 1194.38 1221.74 1236.27 1240.78 1241.44 1241.01 1237.98 1233.73 1218.45 1179.96 1115.83 1012.32 915.71 734.62 652.60 512.27 467.45 381.15 353.76 332.06 317.37 464.08 270.53 152.56 82.01 49.62 39.37 34.75 31.57 32.18 39.54 43.07 39.22 20.59 6.20 4.08 55.10 149.21 322.15 406.59 351.75 103.31 24.31 -6.64 -9.77 -10.01 -10.00 -10.00 -10.01 -10.33 -15.79 -23.36 -94.28 -166.90 -375.06 -994.22 -2157.72 -3186.19 -3649.39 -3920.74 -3994.80 -4000.05 -4002.03 -4002.00 -4002.00 -4002.00 -4002.00 -4002.00 -4002.00 -4002.00 -4002.00 -4002.00 -4002.00 -4002.00 -4002.00 -4002.00 -4002.00 -4002.00 -4002.00 -4001.99 -4001.97 -4002.07
-4002.00 -4001.91 -4001.93 -4002.00 -4002.03 -4002.02 -4002.01 -4002.00 -4002.00 -4002.00 -4002.00 -4002.00 -4002.00 -4002.01 -4002.14 -3978.82 -3840.11 -3347.75 -1984.63 -1233.97 -661.25 -304.98 -212.93 -207.21 -204.94 -204.44 -198.69 -190.73 -137.79 48.45 229.68 422.33 525.96 588.23 606.48 581.42 544.71 560.44 564.55 557.54 549.35 531.00 511.88 455.39 411.82 385.52 342.43 334.83 330.65 343.24 358.73 361.61 404.61 494.00 598.21 681.06 876.44 976.95 1072.23 1118.80 1167.88 1186.48 1212.44 1202.21 1208.07 1192.95 1180.26 1174.80 1100.84 923.64 814.68 780.99 697.55 642.02 609.95 556.89 515.49 563.62 627.37 732.72 635.86 505.62 164.15 98.13 52.73 48.33 42.43 39.14 40.48 43.77 55.42 54.83 45.80 29.13 21.74 66.10 182.36 354.76 370.91 232.81 79.43 4.22 -8.53 -9.99 -10.01 -10.00 -10.00 -10.00 -10.20 -15.07 -26.92 -72.36 -156.49 -311.75 -797.04 -1729.83 -2610.10 -3395.36 -3597.34 -3987.22 -3988.20 -4001.63 -4002.03 -4002.00 -4002.00 -4002.00 -4002.00 -4002.00 -4002.00 -4002.00 -4002.00 -4002.00 -4002.00 -4002.00 -4002.00 -4002.00 -4002.00 -4002.00 -4001.99 -4001.98 -4002.07
-4002.07 -4001.98 -4002.00 -4002.02 -4002.02 -4002.01 -4002.00 -4002.00 -4002.00 -4002.00 -4002.00 -4002.00 -4002.00 -4001.93 -4001.76 -3976.41 -3803.14 -3458.23 -2239.58 -1379.33 -804.45 -404.32 -264.60 -213.27 -206.50 -204.98 -204.41 -195.95 -176.29 -83.35 50.95 255.44 458.85 521.26 514.93 476.25 421.01 428.14 451.91 470.90 425.45 386.87 317.93 370.13 324.06 320.17 336.09 360.09 375.30 427.51 428.55 497.32 569.32 621.12 806.42 893.35 1000.90 990.72 988.67 1020.28 1042.20 1083.07 1135.03 1132.87 1129.32 1101.56 1123.49 1027.14 951.62 800.66 743.98 682.03 648.46 643.29 631.80 624.46 619.33 640.25 747.47 811.41 760.12 492.73 186.85 117.37 63.89 55.40 55.10 49.85 50.70 57.03 73.09 91.67 98.19 73.85 59.55 83.29 185.48 278.65 269.26 132.59 34.59 -1.05 -8.75 -10.00 -10.01 -10.00 -10.00 -10.00 -9.99 -13.43 -25.18 -55.13 -131.02 -234.14 -463.19 -989.26 -1843.67 -2928.78 -3405.03 -3765.55 -3976.65 -4001.85 -4002.05 -4002.00 -4002.00 -4002.00 -4002.00 -4002.00 -4002.00 -4002.00 -4002.00 -4002.00 -4002.00 -4002.00 -4002.00 -4002.00 -4002.00 -4002.00 -4001.99 -4001.98 -4002.07
-4002.07 -4001.99 -4002.00 -4002.01 -4002.01 -4002.00 -4002.00 -4002.00 -4002.00 -4002.00 -4002.00 -4002.00 -4002.00 -4002.00 -4001.71 -3988.86 -3886.94 -3718.45 -2991.78 -2336.98 -1292.37 -755.97 -434.25 -252.42 -212.88 -205.10 -205.01 -201.63 -194.00 -138.82 -60.11 163.13 364.15 456.11 425.87 261.21 219.39 216.62 302.78 245.30 260.51 279.62 247.12 208.53 258.47 314.53 358.59 402.34 461.57 511.79 546.90 598.32 690.57 830.77 1023.69 1111.98 1115.68 1145.72 1030.30 965.99 898.59 918.43 936.28 967.81 910.39 906.31 843.20 855.27 777.44 709.24 661.75 647.42 644.32 636.49 613.97 589.87 583.43 604.14 690.36 823.77 662.42 447.81 191.20 112.41 65.61 58.78 58.82 58.90 61.55 75.45 92.02 139.67 161.90 179.28 104.60 79.86 127.49 157.14 142.96 48.02 9.59 -8.95 -9.58 -10.01 -10.00 -10.00 -10.00 -10.00 -9.99 -10.93 -20.34 -57.20 -107.26 -172.57 -267.25 -651.59 -1081.10 -1696.43 -2919.49 -3405.50 -3901.39 -3984.24 -4000.58 -4002.01 -4002.00 -4002.00 -4002.00 -4002.00 -4002.00 -4002.00 -4002.00 -4002.00 -4002.00 -4002.00 -4002.00 -4002.00 -4002.00 -4002.00 -4001.99 -4001.98 -4002.06
-4002.07 -4001.98 -4001.99 -4002.00 -4002.00 -4002.00 -4002.00 -4002.00 -4002.00 -4002.00 -4002.00 -4002.00 -4002.00 -4002.00 -4001.79 -3994.06 -3931.64 -3755.94 -3349.74 -2870.73 -2342.24 -1386.30 -753.89 -329.53 -220.84 -206.53 -205.00 -204.77 -200.64 -179.42 -91.12 -0.78 271.19 357.22 298.37 93.04 41.68 5.79 -19.73 107.01 121.99 99.28 118.73 137.39 178.54 289.77 440.24 496.85 560.97 576.86 618.36 689.84 738.87 977.28 1071.48 1259.88 1271.56 1218.89 1147.53 960.85 853.56 809.09 793.48 813.23 791.30 741.65 718.95 703.94 697.92 668.80 638.43 629.22 616.87 586.02 556.06 522.62 470.94 510.44 583.31 523.67 439.81 326.80 155.22 74.82 61.80 60.92 60.86 61.76 65.72 92.85 134.20 201.96 226.20 206.00 149.80 74.44 60.23 62.64 40.65 -1.69 -5.29 -9.93 -9.99 -10.01 -10.00 -10.00 -10.00 -10.00 -10.00 -10.40 -18.16 -39.91 -88.48 -143.96 -201.41 -365.58 -777.77 -1318.75 -2453.78 -3360.35 -3852.89 -3986.28 -4001.40 -4002.02 -4002.00 -4002.00 -4002.00 -4002.00 -4002.00 -4002.00 -4002.00 -4002.00 -4002.00 -4002.00 -4002.00 -4002.00 -4002.00 -4002.00 -4001.99 -4001.98 -4002.06
-4002.06 -4001.98 -4001.99 -4002.00 -4002.00 -4002.00 -4002.00 -4002.00 -4002.00 -4002.00 -4002.00 -4002.00 -4002.00 -4002.00 -4002.00 -4001.79 -3988.64 -3962.69 -3780.37 -3645.69 -2942.94 -1913.79 -1130.84 -531.39 -280.34 -205.51 -205.29 -204.98 -204.66 -196.94 -147.39 -56.30 51.73 169.64 127.92 -18.14 -111.23 -125.25 -91.78 -40.66 -6.97 30.59 41.45 89.24 178.91 363.06 476.90 578.25 614.20 633.18 666.65 771.25 868.21 1162.37 1277.43 1333.68 1347.38 1323.64 1281.22 1096.52 935.83 790.82 732.04 689.51 673.17 673.53 669.54 643.04 627.40 619.60 615.95 593.81 565.53 486.32 478.42 402.53 375.49 331.41 392.82 363.61 268.90 158.47 98.04 65.75 61.88 61.02 61.29 63.09 72.71 109.54 159.08 228.31 269.90 222.76 156.43 64.41 25.85 19.99 2.78 -8.56 -9.80 -10.01 -10.01 -10.00 -10.00 -10.00 -10.00 -10.00 -10.02 -10.10 -15.76 -30.13 -70.59 -131.36 -174.08 -267.58 -527.99 -1066.97 -2410.52 -3104.63 -3826.77 -3973.42 -4001.08 -4002.01 -4002.00 -4002.00 -4002.00 -4002.00 -4002.00 -4002.00 -4002.00 -4002.00 -4002.00 -4002.00 -4002.00 -4002.00 -4002.00 -4002.00 -4001.99 -4001.98 -4002.06
-4002.06 -4001.97 -4001.99 -4002.00 -4002.00 -4002.00 -4002.00 -4002.00 -4002.00 -4002.00 -4002.00 -4002.00 -4002.00 -4002.00 -4002.00 -4001.82 -4000.10 -3988.20 -3947.19 -3727.64 -3507.64 -2683.79 -1164.86 -707.76 -308.89 -223.12 -207.07 -205.04 -204.86 -201.83 -168.92 -119.85 -1.96 27.15 -41.13 -88.19 -161.23 -176.43 -178.63 -129.05 -95.41 -31.83 15.57 89.98 201.09 421.03 523.44 617.80 641.00 657.24 686.96 797.86 1042.80 1188.73 1324.27 1362.06 1368.84 1356.84 1327.12 1244.18 1004.99 819.96 704.55 654.67 646.33 637.67 614.92 605.32 582.32 535.00 518.59 474.06 430.94 385.45 327.91 313.66 299.93 257.05 255.35 208.28 144.21 84.98 71.94 61.26 61.00 60.99 61.80 68.08 82.51 128.37 235.36 284.64 307.54 244.15 181.88 72.69 13.10 -4.08 -9.32 -9.43 -10.01 -10.01 -10.00 -10.00 -10.00 -10.00 -10.00 -10.00 -10.00 -10.02 -12.60 -21.67 -51.49 -109.14 -160.99 -238.98 -506.35 -998.21 -2287.67 -3134.93 -3773.94 -3982.17 -4001.52 -4002.00 -4002.00 -4002.00 -4002.00 -4002.00 -4002.00 -4002.00 -4002.00 -4002.00 -4002.00 -4002.00 -4002.00 -4002.00 -4002.00 -4002.00 -4001.99 -4001.98 -4002.06
-4002.06 -4001.98 -4001.99 -4002.00 -4002.00 -4002.00 -4002.00 -4002.00 -4002.00 -4002.00 -4002.00 -4002.00 -4002.00 -4002.00 -4002.00 -4002.01 -4002.06 -4002.18 -3995.96 -3915.38 -3739.99 -2890.24 -1854.23 -1027.12 -407.70 -246.31 -211.50 -210.24 -208.65 -213.97 -199.82 -185.38 -146.63 -127.93 -131.70 -148.57 -192.86 -196.51 -195.06 -167.41 -135.63 -73.60 -10.22 139.75 304.92 452.36 581.78 632.77 645.60 676.64 733.85 884.53 1155.62 1277.45 1352.43 1370.05 1371.43 1367.83 1347.59 1274.09 1095.78 851.80 709.31 639.20 618.29 579.24 540.39 560.40 462.54 435.35 391.12 335.10 324.18 296.25 280.04 268.03 249.51 212.61 179.00 102.41 88.48 67.96 62.75 61.16 61.00 60.99 61.53 65.14 97.95 159.57 279.23 363.93 362.67 313.15 162.03 98.34 16.00 -7.47 -9.68 -10.01 -10.00 -10.00 -10.00 -10.00 -10.00 -10.00 -10.00 -10.00 -10.00 -10.00 -10.48 -23.32 -44.29 -85.05 -148.77 -269.06 -521.26 -1246.66 -2509.09 -3281.37 -3858.12 -3983.28 -4001.88 -4002.00 -4002.00 -4002.00 -4002.00 -4002.00 -4002.00 -4002.00 -4002.00 -4002.00 -4002.00 -4002.00 -4002.00 -4002.00 -4002.00 -4002.00 -4001.99 -4001.98 -4002.06
-4002.06 -4001.98 -4001.99 -4002.00 -4002.00 -4002.00 -4002.00 -4002.00 -4002.00 -4002.00 -4002.00 -4002.00 -4002.00 -4002.00 -4002.00 -4002.00 -4002.01 -4002.15 -3990.05 -3967.68 -3607.85 -2939.23 -1834.91 -870.40 -303.95 -252.11 -220.18 -247.05 -265.50 -263.76 -276.67 -238.64 -263.77 -220.26 -201.21 -198.64 -202.11 -204.46 -203.32 -192.48 -164.35 -115.44 -5.66 140.66 285.28 531.21 597.11 637.65 660.72 708.77 834.19 1065.15 1188.86 1315.85 1361.45 1371.07 1371.64 1371.18 1346.39 1289.51 1095.99 925.65 687.98 637.02 572.36 521.04 455.96 381.12 345.99 312.82 328.49 294.59 268.36 259.59 257.90 253.67 241.96 209.00 171.31 104.09 71.67 62.34 60.98 61.00 61.00 60.99 61.48 74.59 103.31 242.93 349.92 525.51 509.63 352.26 232.94 73.93 12.26 -4.76 -9.40 -10.01 -10.00 -10.00 -10.00 -10.00 -10.00 -10.00 -10.00 -10.04 -10.02 -10.09 -10.47 -13.79 -37.93 -64.58 -149.82 -354.95 -895.69 -1585.53 -2784.25 -3371.62 -3922.13 -3982.15 -4001.42 -4002.01 -4002.00 -4002.00 -4002.00 -4002.00 -4002.00 -4002.00 -4002.00 -4002.00 -4002.00 -4002.00 -4002.00 -4002.00 -4002.00 -4002.00 -4001.99 -4001.97 -4002.06
-4002.06 -4001.98 -4001.99 -4002.00 -4002.00 -4002.00 -4002.00 -4002.00 -4002.00 -4002.00 -4002.00 -4002.00 -4002.00 -4002.00 -4002.00 -4002.00 -4001.97 -4001.17 -3980.39 -3897.57 -3353.96 -2811.75 -1625.42 -729.63 -399.85 -449.77 -636.20 -495.70 -486.38 -549.21 -472.60 -426.50 -502.54 -307.67 -333.73 -259.57 -216.53 -205.71 -204.50 -199.40 -174.49 -131.30 8.03 216.51 379.88 560.09 616.36 655.78 699.53 802.54 963.10 1146.31 1296.21 1348.54 1368.37 1370.34 1365.91 1357.20 1324.39 1215.06 1030.61 847.55 676.67 590.88 497.99 420.75 325.13 293.70 276.39 263.51 261.04 256.17 254.36 252.33 251.78 251.05 238.44 199.45 159.50 101.72 69.67 63.11 61.20 61.01 61.00 60.98 61.42 67.27 97.59 219.97 463.28 621.25 589.06 402.70 168.65 54.65 3.27 -6.33 -9.73 -10.00 -10.00 -10.00 -10.00 -10.00 -10.00 -9.99 -10.03 -10.13 -11.41 -11.58 -11.89 -17.19 -29.41 -58.00 -114.22 -351.72 -773.90 -1933.24 -2933.39 -3587.97 -3928.40 -3998.86 -4002.02 -4002.00 -4002.00 -4002.00 -4002.00 -4002.00 -4002.00 -4002.00 -4002.00 -4002.00 -4002.00 -4002.00 -4002.00 -4002.00 -4002.00 -4002.00 -4001.99 -4001.98 -4002.06
-4002.06 -4001.97 -4001.99 -4002.00 -4002.00 -4002.00 -4002.00 -4002.00 -4002.00 -4002.00 -4002.00 -4002.00 -4002.00 -4002.00 -4002.00 -4002.00 -4002.01 -4001.66 -3971.80 -3822.97 -3350.69 -2451.26 -1492.55 -939.15 -957.74 -1001.20 -1041.29 -1160.81 -1386.70 -1239.51 -1334.00 -1323.57 -1212.22 -938.18 -682.06 -400.95 -239.08 -207.99 -204.98 -204.58 -176.42 -128.85 20.13 280.82 449.41 568.46 644.25 686.14 781.70 909.88 1162.97 1257.88 1335.83 1366.54 1365.58 1353.69 1345.55 1275.40 1263.11 1125.99 970.26 767.17 691.50 571.27 470.55 348.93 298.52 264.65 259.39 255.21 254.50 252.68 252.17 251.92 249.92 243.56 228.06 185.89 149.38 107.44 76.06 62.61 61.21 61.01 61.00 61.10 62.51 70.56 118.28 252.30 564.98 631.16 531.43 371.81 132.45 27.38 -0.57 -9.59 -10.01 -10.00 -10.00 -10.00 -10.00 -10.00 -10.13 -10.18 -10.23 -12.74 -12.97 -23.12 -26.40 -28.99 -47.23 -58.26 -130.32 -369.00 -1128.82 -1628.41 -3250.07 -3868.14 -3976.07 -4001.97 -4002.01 -4002.00 -4002.00 -4002.00 -4002.00 -4002.00 -4002.00 -4002.00 -4002.00 -4002.00 -4002.00 -4002.00 -4002.00 -4002.00 -4002.00 -4002.00 -4001.99 -4001.98 -4002.06
-4002.05 -4001.98 -4001.99 -4002.00 -4002.00 -4002.00 -4002.00 -4002.00 -4002.00 -4002.00 -4002.00 -4002.00 -4002.00 -4002.00 -4002.00 -4002.00 -4002.00 -4000.23 -3989.74 -3863.57 -3491.10 -2619.66 -1938.19 -1623.20 -1642.11 -1884.70 -2029.72 -2180.16 -2222.51 -2562.91 -2468.86 -2156.52 -2403.89 -1889.16 -1165.40 -591.78 -309.61 -214.95 -204.82 -204.66 -180.95 -128.02 34.58 225.29 463.77 591.16 650.11 699.28 793.63 1018.58 1233.52 1309.84 1361.25 1364.47 1364.23 1316.33 1245.62 1173.24 1041.20 917.02 806.70 712.42 662.22 540.48 410.24 314.83 265.38 257.12 252.34 251.94 252.33 252.09 251.95 251.51 248.58 237.23 210.84 177.47 138.83 117.61 81.94 66.67 61.84 61.07 61.03 61.32 64.81 83.18 137.97 274.43 474.98 580.81 522.20 214.29 111.01 15.93 -5.77 -9.87 -10.00 -10.00 -10.00 -10.02 -10.05 -10.39 -11.08 -12.53 -16.82 -25.42 -29.55 -41.76 -46.31 -55.96 -58.24 -76.08 -152.20 -547.08 -1211.65 -2248.97 -3453.00 -3868.28 -3978.45 -4002.01 -4002.00 -4002.00 -4002.00 -4002.00 -4002.00 -4002.00 -4002.00 -4002.00 -4002.00 -4002.00 -4002.00 -4002.00 -4002.00 -4002.00 -4002.00 -4002.00 -4001.99 -4001.98 -4002.05
-4002.05 -4001.98 -4001.99 -4002.00 -4002.00 -4002.00 -4002.00 -4002.00 -4002.00 -4002.00 -4002.00 -4002.00 -4002.00 -4002.00 -4002.00 -4002.00 -4002.00 -4000.73 -3996.29 -3882.69 -3671.85 -3283.67 -2933.20 -2821.66 -2761.33 -3294.15 -3375.19 -3330.64 -3510.06 -3402.89 -3430.49 -3444.75 -3332.20 -2397.16 -1586.22 -863.09 -354.83 -260.33 -211.19 -203.26 -191.43 -128.40 -30.10 229.53 394.38 524.33 620.54 698.77 888.91 1090.89 1243.56 1338.14 1364.27 1341.80 1304.81 1163.55 1047.59 968.31 872.95 784.46 721.18 650.08 618.29 499.89 397.51 294.12 262.89 253.14 251.86 251.92 251.97 251.97 252.00 249.42 245.82 231.37 195.09 156.00 133.41 109.94 85.17 71.53 62.35 61.11 61.17 61.25 73.00 83.06 151.62 228.10 370.18 452.52 289.89 152.92 72.76 3.30 -8.94 -10.01 -10.01 -10.05 -10.25 -10.34 -10.84 -13.56 -16.08 -27.97 -25.61 -46.70 -75.02 -89.04 -109.03 -113.92 -119.17 -121.23 -236.82 -604.82 -1311.59 -2714.71 -3510.55 -3877.58 -3988.91 -4001.33 -4002.05 -4002.00 -4002.00 -4002.00 -4002.00 -4002.00 -4002.00 -4002.00 -4002.00 -4002.00 -4002.00 -4002.00 -4002.00 -4002.00 -4002.00 -4002.00 -4001.99 -4001.98 -4002.05
-4002.05 -4001.98 -4001.99 -4002.00 -4002.00 -4002.00 -4002.00 -4002.00 -4002.00 -4002.00 -4002.00 -4002.00 -4002.00 -4002.00 -4002.00 -4002.00 -4002.00 -4002.01 -3996.41 -3984.10 -3923.89 -3717.52 -3600.07 -3519.58 -3610.30 -3687.32 -3777.67 -3750.77 -3868.69 -3879.84 -3935.07 -3851.50 -3731.52 -3403.14 -2398.75 -1407.45 -549.51 -293.04 -210.25 -205.18 -201.57 -176.20 -34.45 74.58 303.25 468.00 562.45 675.37 823.07 993.39 1223.16 1325.14 1347.02 1263.51 1173.23 1017.82 895.71 774.78 742.66 671.01 654.50 634.36 611.89 557.30 408.30 322.89 268.03 255.62 252.17 251.97 251.99 251.99 251.74 248.96 248.13 208.44 178.47 152.90 130.92 111.25 94.27 74.87 63.45 61.08 62.27 65.09 75.47 102.51 122.88 178.02 231.60 262.05 203.69 103.88 27.32 0.29 -9.69 -10.03 -10.48 -10.41 -11.76 -16.35 -18.30 -37.49 -44.76 -48.88 -88.36 -92.45 -117.13 -134.89 -151.98 -158.78 -157.89 -167.10 -256.72 -770.06 -2006.16 -2536.72 -3474.91 -3883.59 -3999.68 -4002.15 -4002.00 -4002.00 -4002.00 -4002.00 -4002.00 -4002.00 -4002.00 -4002.00 -4002.00 -4002.00 -4002.00 -4002.00 -4002.00 -4002.00 -4002.00 -4002.00 -4001.99 -4001.98 -4002.05
-4002.05 -4001.98 -4001.99 -4002.00 -4002.00 -4002.00 -4002.00 -4002.00 -4002.00 -4002.00 -4002.00 -4002.00 -4002.00 -4002.00 -4002.00 -4002.00 -4002.00 -4002.01 -4002.03 -3996.45 -3997.11 -3987.13 -3925.39 -3922.25 -3935.10 -3953.22 -3958.74 -3981.03 -3978.02 -3987.29 -3993.16 -3969.81 -3927.64 -3592.25 -2615.42 -1838.12 -803.31 -424.44 -230.10 -209.89 -203.15 -190.52 -135.58 -40.67 140.07 311.89 449.69 621.67 772.61 929.52 1069.37 1201.99 1224.54 1114.94 1046.04 875.24 694.47 672.17 632.58 630.60 632.11 628.49 611.29 557.78 454.07 352.57 289.83 265.99 252.69 252.35 251.99 251.99 251.22 249.52 236.29 196.49 166.49 146.76 131.28 118.16 99.68 75.64 66.08 61.63 62.31 70.00 106.19 115.49 127.46 128.64 147.86 139.47 131.30 54.57 9.91 -6.88 -10.06 -11.51 -12.58 -15.91 -21.71 -27.62 -33.25 -57.20 -79.73 -105.42 -129.08 -150.68 -169.74 -180.95 -186.23 -193.93 -200.36 -234.79 -364.64 -653.83 -1745.25 -3083.95 -3594.00 -3956.20 -3999.25 -4002.06 -4002.00 -4002.00 -4002.00 -4002.00 -4002.00 -4002.00 -4002.00 -4002.00 -4002.00 -4002.00 -4002.00 -4002.00 -4002.00 -4002.00 -4002.00 -4002.00 -4001.99 -4001.98 -4002.05
-4002.05 -4001.98 -4001.99 -4002.00 -4002.00 -4002.00 -4002.00 -4002.00 -4002.00 -4002.00 -4002.00 -4002.00 -4002.00 -4002.00 -4002.00 -4002.00 -4002.00 -4002.00 -4002.01 -4002.03 -3999.33 -3998.97 -3988.51 -3995.12 -3986.30 -3997.90 -4000.10 -4001.39 -4001.12 -4002.02 -4002.05 -3999.87 -3960.85 -3757.89 -2914.05 -2237.12 -1315.74 -542.64 -249.61 -211.57 -204.86 -199.40 -155.47 -82.72 16.18 255.90 430.66 591.21 688.95 800.65 943.91 1016.98 1074.44 1023.71 860.08 738.31 653.85 567.35 556.93 593.55 611.81 620.79 618.77 588.95 533.18 424.19 368.84 296.80 267.35 257.82 252.45 251.95 251.62 247.69 230.16 198.19 162.23 141.80 131.54 126.46 108.42 80.36 68.78 61.48 62.54 87.90 115.76 153.35 150.08 113.36 84.03 76.08 60.22 25.61 -4.32 -9.57 -11.83 -17.27 -26.77 -40.52 -67.02 -58.37 -77.24 -108.04 -137.90 -156.45 -167.02 -191.21 -185.76 -204.60 -226.67 -275.43 -300.94 -396.33 -663.59 -1138.69 -2207.35 -3184.67 -3798.30 -3955.68 -4000.41 -4001.66 -4002.00 -4002.00 -4002.00 -4002.00 -4002.00 -4002.00 -4002.00 -4002.00 -4002.00 -4002.00 -4002.00 -4002.00 -4002.00 -4002.00 -4002.00 -4002.00 -4001.99 -4001.98 -4002.05
-4002.05 -4001.98 -4001.99 -4002.00 -4002.00 -4002.00 -4002.00 -4002.00 -4002.00 -4002.00 -4002.00 -4002.00 -4002.00 -4002.00 -4002.00 -4002.00 -4002.00 -4002.00 -4002.01 -4002.01 -4002.00 -4001.97 -4001.94 -4002.05 -4001.52 -4002.01 -4002.03 -4002.02 -4002.00 -4002.00 -4002.04 -4001.93 -3966.83 -3897.44 -3488.72 -2865.67 -1424.32 -822.40 -321.78 -209.70 -205.32 -202.77 -181.64 -154.03 -11.71 140.18 346.30 541.99 646.17 714.64 798.62 862.78 824.22 807.92 719.58 560.51 451.06 397.91 465.24 489.31 564.22 595.46 624.53 618.05 629.18 577.18 520.05 419.33 316.11 269.42 255.06 254.53 251.67 245.97 222.12 199.37 161.69 137.70 134.03 122.37 112.59 83.92 72.85 61.67 65.62 78.26 139.78 192.86 187.77 129.86 76.71 43.84 18.17 2.06 -6.85 -11.02 -18.48 -32.60 -50.47 -75.97 -107.11 -133.04 -144.40 -155.51 -170.75 -186.45 -199.95 -215.61 -273.86 -352.81 -399.31 -551.18 -690.58 -931.19 -1158.67 -1982.93 -2453.36 -3386.26 -3862.54 -3978.97 -4001.19 -4002.00 -4002.00 -4002.00 -4002.00 -4002.00 -4002.00 -4002.00 -4002.00 -4002.00 -4002.00 -4002.00 -4002.00 -4002.00 -4002.00 -4002.00 -4002.00 -4002.00 -4001.99 -4001.98 -4002.05
-4002.05 -4001.98 -4001.99 -4002.00 -4002.00 -4002.00 -4002.00 -4002.00 -4002.00 -4002.00 -4002.00 -4002.00 -4002.00 -4002.00 -4002.00 -4002.00 -4002.00 -4002.00 -4002.00 -4002.00 -4002.00 -4002.00 -4002.00 -4002.00 -4002.00 -4002.00 -4002.00 -4002.00 -4002.00 -4002.00 -4002.00 -4001.66 -3997.85 -3941.15 -3702.42 -3106.76 -2105.55 -889.13 -483.65 -226.56 -204.44 -203.73 -194.95 -167.60 -80.36 61.90 276.87 452.32 589.22 649.74 673.45 668.95 662.71 608.36 486.23 361.99 276.74 210.16 251.06 336.10 479.40 567.66 621.63 674.43 733.19 718.90 611.31 576.18 479.47 354.60 274.50 261.67 253.03 245.47 233.13 201.43 170.06 141.84 134.40 121.38 107.27 79.65 69.35 62.57 63.83 78.82 136.42 204.90 194.50 121.54 56.25 32.18 8.18 -3.65 -10.03 -17.73 -32.77 -65.53 -101.30 -160.33 -164.77 -174.41 -189.00 -191.86 -208.90 -242.39 -247.07 -384.79 -504.03 -711.68 -1018.51 -1224.20 -1438.84 -2021.20 -2453.78 -2804.28 -3424.08 -3785.73 -3917.67 -3992.10 -4001.22 -4002.00 -4002.00 -4002.00 -4002.00 -4002.00 -4002.00 -4002.00 -4002.00 -4002.00 -4002.00 -4002.00 -4002.00 -4002.00 -4002.00 -4002.00 -4002.00 -4002.00 -4001.99 -4001.98 -4002.05
-4002.05 -4001.97 -4001.99 -4002.00 -4002.00 -4002.00 -4002.00 -4002.00 -4002.00 -4002.00 -4002.00 -4002.00 -4002.00 -4002.00 -4002.00 -4002.00 -4002.00 -4002.00 -4002.00 -4002.00 -4002.00 -4002.00 -4002.00 -4002.00 -4002.00 -4002.00 -4002.00 -4002.00 -4002.00 -4002.00 -4002.00 -4002.01 -3999.79 -3981.43 -3877.05 -3354.43 -2342.93 -1359.39 -553.47 -261.88 -205.09 -202.78 -195.71 -183.38 -110.68 1.92 153.54 369.27 542.21 606.29 616.88 562.09 569.13 411.11 325.02 129.18 56.57 57.41 99.09 296.27 375.18 548.97 619.43 682.11 765.51 873.59 864.34 782.30 623.16 388.62 351.89 290.77 265.49 251.69 237.28 201.20 166.81 146.04 133.04 127.12 107.43 90.07 69.47 62.00 61.95 75.59 133.82 200.47 190.28 141.46 55.40 24.13 -1.31 -6.84 -11.21 -15.37 -59.02 -95.79 -154.72 -174.87 -206.97 -207.34 -235.97 -298.56 -386.71 -420.34 -842.85 -975.02 -1221.89 -1347.51 -1882.05 -2323.16 -3076.17 -2970.95 -3154.18 -3520.39 -3768.86 -3920.53 -3968.13 -4000.83 -4001.98 -4002.00 -4002.00 -4002.00 -4002.00 -4002.00 -4002.00 -4002.00 -4002.00 -4002.00 -4002.00 -4002.00 -4002.00 -4002.00 -4002.00 -4002.00 -4002.00 -4002.00 -4001.99 -4001.97 -4002.05
-4002.05 -4001.98 -4001.99 -4002.00 -4002.00 -4002.00 -4002.00 -4002.00 -4002.00 -4002.00 -4002.00 -4002.00 -4002.00 -4002.00 -4002.00 -4002.00 -4002.00 -4002.00 -4002.00 -4002.00 -4002.00 -4002.00 -4002.00 -4002.00 -4002.00 -4002.00 -4002.00 -4002.00 -4002.00 -4002.00 -4002.00 -4002.01 -4002.00 -3996.90 -3876.61 -3399.06 -2813.32 -1581.87 -622.31 -284.98 -209.32 -190.19 -186.13 -147.00 -116.44 -10.84 110.92 270.85 465.38 521.90 522.23 439.93 345.24 220.59 93.69 -50.68 -87.94 -24.71 20.24 150.29 274.89 461.54 553.89 679.83 759.09 845.10 922.90 854.65 704.58 547.56 412.32 350.16 278.13 260.96 243.55 211.82 169.67 154.51 135.46 127.75 105.23 85.98 65.91 58.53 57.12 73.25 124.12 184.19 183.78 128.73 46.17 17.29 -5.50 -8.19 -12.71 -21.01 -83.81 -124.21 -168.43 -232.81 -278.21 -361.96 -379.84 -503.38 -698.87 -1022.89 -1568.25 -1830.37 -2446.32 -2747.38 -2758.10 -3370.16 -3365.63 -3705.80 -3707.71 -3856.01 -3948.84 -3981.62 -4001.02 -4001.97 -4002.00 -4002.00 -4002.00 -4002.00 -4002.00 -4002.00 -4002.00 -4002.00 -4002.00 -4002.00 -4002.00 -4002.00 -4002.00 -4002.00 -4002.00 -4002.00 -4002.00 -4002.00 -4001.99 -4001.98 -4002.05
-4002.05 -4001.98 -4001.99 -4002.00 -4002.00 -4002.00 -4002.00 -4002.00 -4002.00 -4002.00 -4002.00 -4002.00 -4002.00 -4002.00 -4002.00 -4002.00 -4002.00 -4002.00 -4002.00 -4002.00 -4002.00 -4002.00 -4002.00 -4002.00 -4002.00 -4002.00 -4002.00 -4002.00 -4002.00 -4002.00 -4002.00 -4002.00 -4001.98 -3996.26 -3936.04 -3586.96 -2949.06 -2164.66 -813.03 -435.60 -212.24 -174.75 -133.40 -81.86 0.37 57.68 152.57 299.68 407.55 433.75 353.17 135.45 69.33 50.57 -64.96 -129.98 -114.31 -61.50 9.50 129.62 225.67 425.71 528.87 604.91 688.11 741.55 858.03 825.78 767.48 607.42 506.83 443.49 324.60 281.82 251.28 218.99 181.15 151.09 140.40 130.70 111.75 84.74 60.72 49.66 45.60 70.13 99.52 167.31 178.52 99.28 41.98 3.93 -7.38 -10.06 -13.43 -37.06 -85.57 -156.53 -227.24 -309.39 -401.51 -679.32 -957.27 -1314.09 -1623.72 -2131.80 -2602.78 -2949.55 -3208.29 -3520.39 -3628.64 -3809.84 -3915.52 -3939.96 -3976.41 -3983.44 -3999.02 -4001.81 -4002.04 -4002.00 -4002.00 -4002.00 -4002.00 -4002.00 -4002.00 -4002.00 -4002.00 -4002.00 -4002.00 -4002.00 -4002.00 -4002.00 -4002.00 -4002.00 -4002.00 -4002.00 -4002.00 -4002.00 -4001.99 -4001.98 -4002.05
-4002.05 -4001.98 -4001.99 -4002.00 -4002.00 -4002.00 -4002.00 -4002.00 -4002.00 -4002.00 -4002.00 -4002.00 -4002.00 -4002.00 -4002.00 -4002.00 -4002.00 -4002.00 -4002.00 -4002.00 -4002.00 -4002.00 -4002.00 -4002.00 -4002.00 -4002.00 -4002.00 -4002.00 -4002.00 -4002.00 -4002.00 -4002.00 -4002.04 -4002.11 -3940.28 -3864.23 -3167.71 -2369.66 -1169.27 -460.63 -301.72 -158.29 -106.26 19.41 145.47 191.85 223.49 296.30 278.52 226.51 151.61 -6.28 -80.78 -133.56 -170.87 -165.99 -120.92 -64.47 38.86 91.63 161.09 298.71 415.49 534.14 648.05 698.52 739.70 752.84 701.32 648.95 590.09 514.07 413.71 326.08 261.19 228.86 208.72 169.40 152.53 144.88 125.04 95.39 57.81 35.76 19.67 21.19 61.58 119.41 132.73 72.62 32.56 8.14 -8.07 -11.89 -29.35 -53.74 -143.57 -210.45 -393.74 -676.41 -747.48 -1400.84 -2058.71 -2361.36 -2677.21 -3043.59 -3316.65 -3457.38 -3799.41 -3860.96 -3938.32 -3984.92 -3995.31 -3994.14 -3996.50 -4001.04 -4001.77 -4001.86 -4002.00 -4002.00 -4002.00 -4002.00 -4002.00 -4002.00 -4002.00 -4002.00 -4002.00 -4002.00 -4002.00 -4002.00 -4002.00 -4002.00 -4002.00 -4002.00 -4002.00 -4002.00 -4002.00 -4002.00 -4001.99 -4001.98 -4002.05
-4002.05 -4001.97 -4001.99 -4002.00 -4002.00 -4002.00 -4002.00 -4002.00 -4002.00 -4002.00 -4002.00 -4002.00 -4002.00 -4002.00 -4002.00 -4002.00 -4002.00 -4002.00 -4002.00 -4002.00 -4002.00 -4002.00 -4002.00 -4002.00 -4002.00 -4002.00 -4002.00 -4002.00 -4002.00 -4002.00 -4002.00 -4002.00 -4002.00 -4002.14 -3994.71 -3913.39 -3645.64 -2299.64 -1850.61 -1067.60 -444.80 -204.18 -83.24 60.46 166.66 253.18 262.33 265.21 198.14 102.83 -20.47 -148.93 -179.86 -192.91 -190.08 -161.67 -93.34 -15.02 28.08 85.22 125.75 208.43 318.62 418.61 484.35 582.75 630.77 663.69 663.57 634.71 602.62 553.05 462.78 378.55 292.86 244.63 209.54 188.25 183.95 170.30 137.46 112.43 63.44 38.37 0.75 1.80 29.02 60.09 64.23 39.30 19.28 6.62 -9.29 -23.64 -42.47 -87.51 -147.54 -361.74 -608.66 -1027.71 -1880.02 -2479.49 -2859.89 -3082.75 -3545.13 -3795.87 -3882.64 -3953.95 -3981.94 -3976.64 -3995.67 -3997.13 -4000.99 -4001.98 -4002.02 -4002.02 -4002.00 -4002.00 -4002.00 -4002.00 -4002.00 -4002.00 -4002.00 -4002.00 -4002.00 -4002.00 -4002.00 -4002.00 -4002.00 -4002.00 -4002.00 -4002.00 -4002.00 -4002.00 -4002.00 -4002.00 -4002.00 -4002.00 -4001.99 -4001.98 -4002.05
-4002.05 -4001.98 -4001.99 -4002.00 -4002.00 -4002.00 -4002.00 -4002.00 -4002.00 -4002.00 -4002.00 -4002.00 -4002.00 -4002.00 -4002.00 -4002.00 -4002.00 -4002.00 -4002.00 -4002.00 -4002.00 -4002.00 -4002.00 -4002.00 -4002.00 -4002.00 -4002.00 -4002.00 -4002.00 -4002.00 -4002.00 -4002.00 -4002.00 -4001.83 -3994.21 -3905.93 -3781.43 -3244.67 -2036.16 -1392.33 -808.70 -430.29 -260.84 -17.21 11.34 200.67 227.05 190.33 118.06 -8.88 -110.72 -176.01 -195.92 -202.53 -192.17 -168.93 -95.23 -18.60 35.83 77.47 98.82 147.25 187.06 242.90 369.96 470.02 547.65 598.64 610.33 609.55 597.39 554.55 506.96 398.72 304.29 261.36 232.13 224.78 213.84 209.01 195.20 138.15 78.93 33.36 0.33 -1.49 7.17 10.27 29.14 14.86 4.93 -8.12 -13.77 -26.06 -60.52 -156.73 -248.23 -521.31 -1322.56 -2021.74 -2838.26 -3347.03 -3683.63 -3801.51 -3916.86 -3952.72 -3960.05 -3990.78 -4001.19 -4001.00 -4002.03 -4002.00 -4002.00 -4002.00 -4002.00 -4002.00 -4002.00 -4002.00 -4002.00 -4002.00 -4002.00 -4002.00 -4002.00 -4002.00 -4002.00 -4002.00 -4002.00 -4002.00 -4002.00 -4002.00 -4002.00 -4002.00 -4002.00 -4002.00 -4002.00 -4002.00 -4002.00 -4002.00 -4001.99 -4001.98 -4002.04
-4002.05 -4001.97 -4001.99 -4002.00 -4002.00 -4002.00 -4002.00 -4002.00 -4002.00 -4002.00 -4002.00 -4002.00 -4002.00 -4002.00 -4002.00 -4002.00 -4002.00 -4002.00 -4002.00 -4002.00 -4002.00 -4002.00 -4002.00 -4002.00 -4002.00 -4002.00 -4002.00 -4002.00 -4002.00 -4002.00 -4002.00 -4002.00 -4002.00 -4002.00 -4000.52 -3995.00 -3887.86 -3475.04 -3190.15 -2140.85 -1234.56 -865.94 -648.33 -329.67 -43.62 -37.56 96.80 116.61 47.04 -64.49 -167.47 -194.56 -204.61 -203.55 -198.21 -162.70 -108.04 -35.45 -6.59 37.85 74.80 103.63 127.02 173.47 246.79 325.98 415.12 489.09 521.15 548.92 537.74 536.58 456.72 388.62 307.96 257.41 245.49 236.52 237.29 227.76 214.95 184.85 140.25 69.35 16.84 18.85 12.53 3.68 -4.89 -7.05 -8.28 -11.70 -25.67 -43.06 -100.40 -207.64 -312.87 -855.53 -1857.31 -2833.74 -3484.05 -3762.22 -3959.31 -3979.09 -3995.76 -4001.29 -4001.66 -4001.61 -4002.02 -4002.03 -4002.01 -4002.00 -4002.00 -4002.00 -4002.00 -4002.00 -4002.00 -4002.00 -4002.00 -4002.00 -4002.00 -4002.00 -4002.00 -4002.00 -4002.00 -4002.00 -4002.00 -4002.00 -4002.00 -4002.00 -4002.00 -4002.00 -4002.00 -4002.00 -4002.00 -4002.00 -4002.00 -4002.00 -4001.99 -4001.98 -4002.04
-4002.05 -4001.97 -4001.99 -4002.00 -4002.00 -4002.00 -4002.00 -4002.00 -4002.00 -4002.00 -4002.00 -4002.00 -4002.00 -4002.00 -4002.00 -4002.00 -4002.00 -4002.00 -4002.00 -4002.00 -4002.00 -4002.00 -4002.00 -4002.00 -4002.00 -4002.00 -4002.00 -4002.00 -4002.00 -4002.00 -4002.00 -4002.00 -4002.00 -4002.00 -4001.91 -3993.42 -3965.31 -3702.18 -3447.62 -3074.23 -2312.53 -2186.56 -1502.38 -1069.65 -865.06 -218.89 -156.56 -70.49 -75.78 -124.29 -188.98 -201.10 -204.69 -203.72 -199.35 -170.37 -140.96 -91.16 -57.26 -22.74 6.33 48.88 70.34 106.56 163.37 218.08 308.95 370.63 399.04 429.79 419.67 389.53 370.03 323.88 268.69 244.97 239.58 241.47 240.36 238.36 227.44 210.45 145.89 81.32 51.97 42.08 39.90 21.87 -5.71 -14.95 -21.23 -26.51 -47.13 -90.92 -131.48 -330.66 -719.24 -1683.05 -2585.79 -3271.10 -3791.70 -3921.86 -3995.51 -3999.74 -4002.06 -4001.97 -4002.00 -4002.00 -4002.00 -4002.00 -4002.00 -4002.00 -4002.00 -4002.00 -4002.00 -4002.00 -4002.00 -4002.00 -4002.00 -4002.00 -4002.00 -4002.00 -4002.00 -4002.00 -4002.00 -4002.00 -4002.00 -4002.00 -4002.00 -4002.00 -4002.00 -4002.00 -4002.00 -4002.00 -4002.00 -4002.00 -4002.00 -4002.00 -4001.99 -4001.98 -4002.04
-4002.05 -4001.98 -4001.99 -4002.00 -4002.00 -4002.00 -4002.00 -4002.00 -4002.00 -4002.00 -4002.00 -4002.00 -4002.00 -4002.00 -4002.00 -4002.00 -4002.00 -4002.00 -4002.00 -4002.00 -4002.00 -4002.00 -4002.00 -4002.00 -4002.00 -4002.00 -4002.00 -4002.00 -4002.00 -4002.00 -4002.00 -4002.00 -4002.00 -4002.00 -4001.96 -4002.10 -3996.04 -3962.91 -3837.35 -3674.27 -3611.84 -2904.49 -2687.39 -2403.09 -1515.77 -866.66 -432.33 -249.55 -149.99 -178.50 -197.01 -204.58 -204.71 -204.17 -201.75 -187.85 -174.05 -152.01 -117.34 -94.47 -65.65 15.68 61.48 78.56 112.55 139.95 198.56 241.67 300.99 337.84 285.64 296.33 260.32 256.24 236.26 234.22 218.39 220.97 216.47 221.05 222.43 194.27 154.05 82.52 56.32 68.22 61.76 31.81 -5.36 -19.72 -26.62 -45.94 -83.06 -127.09 -210.48 -541.15 -1166.94 -2251.12 -3105.91 -3676.47 -3959.66 -3995.95 -3999.41 -4002.10 -4002.02 -4002.00 -4002.00 -4002.00 -4002.00 -4002.00 -4002.00 -4002.00 -4002.00 -4002.00 -4002.00 -4002.00 -4002.00 -4002.00 -4002.00 -4002.00 -4002.00 -4002.00 -4002.00 -4002.00 -4002.00 -4002.00 -4002.00 -4002.00 -4002.00 -4002.00 -4002.00 -4002.00 -4002.00 -4002.00 -4002.00 -4002.00 -4002.00 -4002.00 -4001.99 -4001.98 -4002.05
-4002.04 -4001.98 -4001.99 -4002.00 -4002.00 -4002.00 -4002.00 -4002.00 -4002.00 -4002.00 -4002.00 -4002.00 -4002.00 -4002.00 -4002.00 -4002.00 -4002.00 -4002.00 -4002.00 -4002.00 -4002.00 -4002.00 -4002.00 -4002.00 -4002.00 -4002.00 -4002.00 -4002.00 -4002.00 -4002.00 -4002.00 -4002.00 -4002.00 -4002.00 -4002.00 -4002.07 -4001.58 -3996.52 -3956.60 -3915.27 -3766.77 -3658.51 -3493.33 -3099.30 -2513.28 -1560.06 -818.96 -631.12 -446.66 -329.25 -254.02 -221.97 -209.78 -208.16 -211.05 -205.67 -206.23 -196.15 -163.13 -167.37 -108.91 -82.78 -1.05 37.17 81.50 100.51 132.65 172.46 180.20 197.18 177.01 191.52 189.99 179.51 181.13 134.45 163.29 164.72 158.71 183.76 170.14 156.91 120.74 70.10 58.54 70.16 73.47 31.71 -4.07 -20.62 -37.33 -50.99 -109.17 -180.46 -332.67 -863.35 -1697.57 -3049.45 -3259.27 -3921.85 -3975.21 -4000.07 -4002.01 -4002.00 -4002.00 -4002.00 -4002.00 -4002.00 -4002.00 -4002.00 -4002.00 -4002.00 -4002.00 -4002.00 -4002.00 -4002.00 -4002.00 -4002.00 -4002.00 -4002.00 -4002.00 -4002.00 -4002.00 -4002.00 -4002.00 -4002.00 -4002.00 -4002.00 -4002.00 -4002.00 -4002.00 -4002.00 -4002.00 -4002.00 -4002.00 -4002.00 -4002.00 -4002.00 -4001.99 -4001.97 -4002.05
-4002.04 -4001.98 -4001.99 -4002.00 -4002.00 -4002.00 -4002.00 -4002.00 -4002.00 -4002.00 -4002.00 -4002.00 -4002.00 -4002.00 -4002.00 -4002.00 -4002.00 -4002.00 -4002.00 -4002.00 -4002.00 -4002.00 -4002.00 -4002.00 -4002.00 -4002.00 -4002.00 -4002.00 -4002.00 -4002.00 -4002.00 -4002.00 -4002.00 -4002.00 -4002.00 -4002.00 -4002.00 -4000.29 -3999.63 -3997.10 -3979.02 -3961.29 -3895.31 -3648.67 -3497.11 -2497.05 -1913.13 -1300.21 -895.00 -581.50 -416.83 -267.69 -290.09 -226.20 -236.20 -285.02 -247.41 -282.43 -237.60 -198.46 -171.61 -105.73 -48.26 2.41 44.83 71.74 86.12 96.15 104.90 100.85 122.50 101.20 111.59 93.15 100.87 109.97 109.36 101.37 104.79 104.34 85.38 75.62 62.63 41.96 36.58 58.24 54.69 26.75 -12.45 -31.18 -61.19 -91.44 -160.18 -255.33 -515.12 -1243.89 -2180.25 -3209.46 -3706.50 -3966.28 -3989.47 -4002.03 -4002.00 -4002.00 -4002.00 -4002.00 -4002.00 -4002.00 -4002.00 -4002.00 -4002.00 -4002.00 -4002.00 -4002.00 -4002.00 -4002.00 -4002.00 -4002.00 -4002.00 -4002.00 -4002.00 -4002.00 -4002.00 -4002.00 -4002.00 -4002.00 -4002.00 -4002.00 -4002.00 -4002.00 -4002.00 -4002.00 -4002.00 -4002.00 -4002.00 -4002.00 -4002.00 -4002.00 -4001.99 -4001.98 -4002.05
-4002.05 -4001.97 -4001.99 -4002.00 -4002.00 -4002.00 -4002.00 -4002.00 -4002.00 -4002.00 -4002.00 -4002.00 -4002.00 -4002.00 -4002.00 -4002.00 -4002.00 -4002.00 -4002.00 -4002.00 -4002.00 -4002.00 -4002.00 -4002.00 -4002.00 -4002.00 -4002.00 -4002.00 -4002.00 -4002.00 -4002.00 -4002.00 -4002.00 -4002.00 -4002.00 -4002.00 -4002.00 -4002.01 -4001.91 -4002.01 -4002.09 -4000.86 -3977.45 -3879.99 -3600.05 -3366.78 -2606.92 -2283.24 -1738.01 -1352.13 -1177.32 -1009.82 -734.70 -641.78 -567.21 -637.18 -672.43 -649.02 -454.08 -292.96 -205.14 -145.92 -96.06 -25.00 11.89 30.49 41.99 47.61 41.14 60.03 43.00 54.02 46.91 53.97 44.77 45.57 46.22 41.43 37.09 38.39 36.72 34.23 23.23 18.37 16.62 21.68 33.90 16.45 -14.19 -37.69 -95.12 -121.56 -199.37 -325.28 -692.79 -1639.91 -2572.72 -3529.67 -3843.57 -3982.14 -4001.56 -4002.01 -4002.00 -4002.00 -4002.00 -4002.00 -4002.00 -4002.00 -4002.00 -4002.00 -4002.00 -4002.00 -4002.00 -4002.00 -4002.00 -4002.00 -4002.00 -4002.00 -4002.00 -4002.00 -4002.00 -4002.00 -4002.00 -4002.00 -4002.00 -4002.00 -4002.00 -4002.00 -4002.00 -4002.00 -4002.00 -4002.00 -4002.00 -4002.00 -4002.00 -4002.00 -4002.00 -4002.00 -4001.99 -4001.98 -4002.04
-4002.05 -4001.98 -4001.99 -4002.00 -4002.00 -4002.00 -4002.00 -4002.00 -4002.00 -4002.00 -4002.00 -4002.00 -4002.00 -4002.00 -4002.00 -4002.00 -4002.00 -4002.00 -4002.00 -4002.00 -4002.00 -4002.00 -4002.00 -4002.00 -4002.00 -4002.00 -4002.00 -4002.00 -4002.00 -4002.00 -4002.00 -4002.00 -4002.00 -4002.00 -4002.00 -4002.00 -4002.00 -4002.00 -4002.00 -4002.00 -4002.02 -4001.99 -3996.99 -3971.96 -3932.63 -3734.80 -3693.62 -3372.68 -2842.54 -2484.34 -2020.89 -1698.20 -1283.40 -1499.20 -1059.41 -1369.89 -1109.36 -1342.55 -793.69 -568.65 -488.31 -286.99 -168.05 -92.72 -2.13 4.73 14.89 14.93 19.15 19.16 21.98 16.71 16.85 21.59 18.30 17.60 16.74 18.84 17.38 17.73 17.54 18.05 14.98 3.23 2.67 12.68 17.89 6.55 -16.53 -74.72 -117.15 -152.75 -218.68 -456.10 -992.65 -2064.45 -3034.39 -3831.85 -3951.49 -3998.46 -4001.98 -4002.01 -4002.00 -4002.00 -4002.00 -4002.00 -4002.00 -4002.00 -4002.00 -4002.00 -4002.00 -4002.00 -4002.00 -4002.00 -4002.00 -4002.00 -4002.00 -4002.00 -4002.00 -4002.00 -4002.00 -4002.00 -4002.00 -4002.00 -4002.00 -4002.00 -4002.00 -4002.00 -4002.00 -4002.00 -4002.00 -4002.00 -4002.00 -4002.00 -4002.00 -4002.00 -4002.00 -4002.00 -4001.99 -4001.98 -4002.05
-4002.04 -4001.98 -4001.98 -4002.00 -4002.00 -4002.00 -4002.00 -4002.00 -4002.00 -4002.00 -4002.00 -4002.00 -4002.00 -4002.00 -4002.00 -4002.00 -4002.00 -4002.00 -4002.00 -4002.00 -4002.00 -4002.00 -4002.00 -4002.00 -4002.00 -4002.00 -4002.00 -4002.00 -4002.00 -4002.00 -4002.00 -4002.00 -4002.00 -4002.00 -4002.00 -4002.00 -4002.00 -4002.00 -4002.00 -4002.00 -4002.00 -4001.96 -4001.92 -4000.58 -3997.34 -3967.46 -3949.34 -3847.41 -3502.72 -3422.62 -3224.22 -2938.83 -2706.52 -2688.27 -2499.50 -2517.04 -2812.49 -2262.09 -1993.97 -1358.23 -913.25 -651.71 -443.99 -187.95 -49.61 -2.89 8.32 12.06 12.85 13.21 12.28 12.30 12.30 12.37 12.12 12.81 12.16 12.21 12.13 12.12 12.73 11.51 9.16 5.68 2.85 5.75 7.56 -2.41 -27.28 -65.66 -155.61 -177.40 -279.54 -430.91 -1204.45 -2410.32 -3549.37 -3850.60 -3987.89 -4001.83 -4002.01 -4002.00 -4002.00 -4002.00 -4002.00 -4002.00 -4002.00 -4002.00 -4002.00 -4002.00 -4002.00 -4002.00 -4002.00 -4002.00 -4002.00 -4002.00 -4002.00 -4002.00 -4002.00 -4002.00 -4002.00 -4002.00 -4002.00 -4002.00 -4002.00 -4002.00 -4002.00 -4002.00 -4002.00 -4002.00 -4002.00 -4002.00 -4002.00 -4002.00 -4002.00 -4002.00 -4002.00 -4002.00 -4001.99 -4001.97 -4002.05
-4002.04 -4001.98 -4001.99 -4002.00 -4002.00 -4002.00 -4002.00 -4002.00 -4002.00 -4002.00 -4002.00 -4002.00 -4002.00 -4002.00 -4002.00 -4002.00 -4002.00 -4002.00 -4002.00 -4002.00 -4002.00 -4002.00 -4002.00 -4002.00 -4002.00 -4002.00 -4002.00 -4002.00 -4002.00 -4002.00 -4002.00 -4002.00 -4002.00 -4002.00 -4002.00 -4002.00 -4002.00 -4002.00 -4002.00 -4002.00 -4002.00 -4002.00 -4002.00 -4002.00 -4001.97 -4001.03 -3988.17 -3983.02 -3902.24 -3837.99 -3802.04 -3703.82 -3498.34 -3525.53 -3411.63 -3534.32 -3459.25 -3308.94 -2817.88 -2458.66 -2001.16 -1467.38 -1113.25 -354.45 -124.06 -27.15 4.27 10.21 11.92 12.00 12.00 11.98 11.97 11.97 11.98 11.99 12.02 12.00 12.00 12.01 11.99 11.76 10.41 8.61 8.07 6.24 -1.95 -14.86 -41.20 -106.59 -166.59 -191.27 -265.44 -602.23 -1402.33 -2265.04 -3542.88 -3923.07 -3988.16 -4001.60 -4002.00 -4002.00 -4002.00 -4002.00 -4002.00 -4002.00 -4002.00 -4002.00 -4002.00 -4002.00 -4002.00 -4002.00 -4002.00 -4002.00 -4002.00 -4002.00 -4002.00 -4002.00 -4002.00 -4002.00 -4002.00 -4002.00 -4002.00 -4002.00 -4002.00 -4002.00 -4002.00 -4002.00 -4002.00 -4002.00 -4002.00 -4002.00 -4002.00 -4002.00 -4002.00 -4002.00 -4002.00 -4002.00 -4001.99 -4001.97 -4002.05
-4002.05 -4001.98 -4001.99 -4002.00 -4002.00 -4002.00 -4002.00 -4002.00 -4002.00 -4002.00 -4002.00 -4002.00 -4002.00 -4002.00 -4002.00 -4002.00 -4002.00 -4002.00 -4002.00 -4002.00 -4002.00 -4002.00 -4002.00 -4002.00 -4002.00 -4002.00 -4002.00 -4002.00 -4002.00 -4002.00 -4002.00 -4002.00 -4002.00 -4002.00 -4002.00 -4002.00 -4002.00 -4002.00 -4002.00 -4002.00 -4002.00 -4002.00 -4002.00 -4002.00 -4002.00 -4002.01 -4002.02 -4000.54 -3983.58 -3986.35 -3955.12 -3972.27 -3943.05 -3917.75 -3909.69 -3878.60 -3916.40 -3769.18 -3593.57 -3371.52 -3039.11 -2334.47 -1369.70 -729.43 -247.34 -79.09 -3.43 5.79 11.74 11.99 11.99 11.99 11.99 11.99 12.00 12.00 12.00 12.00 12.00 12.00 11.99 11.96 11.55 9.93 6.91 -1.80 -6.15 -65.99 -88.97 -141.58 -177.05 -228.27 -306.96 -731.44 -1614.24 -2359.10 -3531.24 -3870.37 -3986.52 -4000.99 -4002.00 -4002.00 -4002.00 -4002.00 -4002.00 -4002.00 -4002.00 -4002.00 -4002.00 -4002.00 -4002.00 -4002.00 -4002.00 -4002.00 -4002.00 -4002.00 -4002.00 -4002.00 -4002.00 -4002.00 -4002.00 -4002.00 -4002.00 -4002.00 -4002.00 -4002.00 -4002.00 -4002.00 -4002.00 -4002.00 -4002.00 -4002.00 -4002.00 -4002.00 -4002.00 -4002.00 -4002.00 -4002.00 -4001.99 -4001.97 -4002.05
-4002.05 -4001.97 -4001.99 -4002.00 -4002.00 -4002.00 -4002.00 -4002.00 -4002.00 -4002.00 -4002.00 -4002.00 -4002.00 -4002.00 -4002.00 -4002.00 -4002.00 -4002.00 -4002.00 -4002.00 -4002.00 -4002.00 -4002.00 -4002.00 -4002.00 -4002.00 -4002.00 -4002.00 -4002.00 -4002.00 -4002.00 -4002.00 -4002.00 -4002.00 -4002.00 -4002.00 -4002.00 -4002.00 -4002.00 -4002.00 -4002.00 -4002.00 -4002.00 -4002.00 -4002.00 -4002.00 -4002.00 -4002.05 -4001.05 -3997.95 -3999.43 -3994.74 -3994.68 -3992.03 -3993.50 -3997.25 -3984.10 -3947.25 -3921.70 -3785.43 -3595.58 -3155.33 -2430.92 -1052.27 -495.85 -116.63 -13.47 3.40 7.35 11.22 11.95 12.00 12.00 12.00 12.00 12.00 12.00 11.99 11.80 11.98 11.48 11.28 9.12 0.57 -22.27 -73.46 -114.86 -130.27 -165.32 -186.02 -258.91 -537.88 -848.47 -1204.80 -2047.72 -3160.94 -3607.50 -3916.91 -3997.53 -4002.08 -4002.00 -4002.00 -4002.00 -4002.00 -4002.00 -4002.00 -4002.00 -4002.00 -4002.00 -4002.00 -4002.00 -4002.00 -4002.00 -4002.00 -4002.00 -4002.00 -4002.00 -4002.00 -4002.00 -4002.00 -4002.00 -4002.00 -4002.00 -4002.00 -4002.00 -4002.00 -4002.00 -4002.00 -4002.00 -4002.00 -4002.00 -4002.00 -4002.00 -4002.00 -4002.00 -4002.00 -4002.00 -4002.00 -4002.00 -4001.99 -4002.05
-4002.05 -4001.97 -4001.99 -4002.00 -4002.00 -4002.00 -4002.00 -4002.00 -4002.00 -4002.00 -4002.00 -4002.00 -4002.00 -4002.00 -4002.00 -4002.00 -4002.00 -4002.00 -4002.00 -4002.00 -4002.00 -4002.00 -4002.00 -4002.00 -4002.00 -4002.00 -4002.00 -4002.00 -4002.00 -4002.00 -4002.00 -4002.00 -4002.00 -4002.00 -4002.00 -4002.00 -4002.00 -4002.00 -4002.00 -4002.00 -4002.00 -4002.00 -4002.00 -4002.00 -4002.00 -4002.00 -4002.00 -4001.39 -4000.55 -3995.75 -3986.07 -3972.50 -3961.13 -3939.39 -3961.81 -3982.91 -3998.42 -3996.73 -3974.82 -3956.94 -3879.27 -3499.08 -2522.90 -1613.54 -604.74 -127.86 -41.18 -9.21 2.72 10.15 11.57 11.82 11.95 11.74 11.52 11.63 11.28 11.32 9.16 10.13 8.23 6.46 -8.97 -39.77 -64.52 -133.81 -357.80 -416.36 -382.48 -453.48 -715.17 -944.55 -1521.62 -2198.80 -2603.23 -3480.83 -3820.73 -3968.87 -3999.73 -4001.92 -4002.01 -4002.00 -4002.00 -4002.00 -4002.00 -4002.00 -4002.00 -4002.00 -4002.00 -4002.00 -4002.00 -4002.00 -4002.00 -4002.00 -4002.00 -4002.00 -4002.00 -4002.00 -4002.00 -4002.00 -4002.00 -4002.00 -4002.00 -4002.00 -4002.00 -4002.00 -4002.00 -4002.00 -4002.00 -4002.00 -4002.00 -4002.00 -4002.00 -4002.00 -4002.00 -4002.00 -4002.00 -4002.00 -4001.99 -4001.98 -4002.05
-4002.05 -4001.97 -4001.99 -4002.00 -4002.00 -4002.00 -4002.00 -4002.00 -4002.00 -4002.00 -4002.00 -4002.00 -4002.00 -4002.00 -4002.00 -4002.00 -4002.00 -4002.00 -4002.00 -4002.00 -4002.00 -4002.00 -4002.00 -4002.00 -4002.00 -4002.00 -4002.00 -4002.00 -4002.00 -4002.00 -4002.00 -4002.00 -4002.00 -4002.00 -4002.00 -4002.00 -4002.00 -4002.00 -4002.00 -4002.00 -4002.00 -4002.00 -4002.00 -4002.00 -4002.00 -4002.01 -4001.41 -3996.24 -3982.69 -3937.01 -3845.95 -3834.73 -3603.61 -3714.72 -3802.02 -3838.63 -3929.20 -3992.61 -3991.44 -3975.74 -3898.56 -3551.14 -2720.87 -1762.99 -640.83 -231.46 -92.89 -39.69 -18.06 0.27 9.80 1.19 0.29 6.78 2.11 -0.35 -2.17 -8.91 -4.53 -2.93 -6.76 -24.01 -49.27 -80.59 -285.16 -648.35 -1085.62 -1307.94 -1208.43 -1052.74 -1458.72 -1989.09 -2362.18 -2791.83 -3461.36 -3832.23 -3950.79 -3993.50 -4001.89 -4001.97 -4002.00 -4002.00 -4002.00 -4002.00 -4002.00 -4002.00 -4002.00 -4002.00 -4002.00 -4002.00 -4002.00 -4002.00 -4002.00 -4002.00 -4002.00 -4002.00 -4002.00 -4002.00 -4002.00 -4002.00 -4002.00 -4002.00 -4002.00 -4002.00 -4002.00 -4002.00 -4002.00 -4002.00 -4002.00 -4002.00 -4002.00 -4002.00 -4002.00 -4002.00 -4002.00 -4002.00 -4002.00 -4002.00 -4001.99 -4001.98 -4002.04
-4002.05 -4001.98 -4001.99 -4002.00 -4002.00 -4002.00 -4002.00 -4002.00 -4002.00 -4002.00 -4002.00 -4002.00 -4002.00 -4002.00 -4002.00 -4002.00 -4002.00 -4002.00 -4002.00 -4002.00 -4002.00 -4002.00 -4002.00 -4002.00 -4002.00 -4002.00 -4002.00 -4002.00 -4002.00 -4002.00 -4002.00 -4002.00 -4002.00 -4002.00 -4002.00 -4002.00 -4002.00 -4002.00 -4002.00 -4002.00 -4002.00 -4002.00 -4002.00 -4002.00 -4002.00 -4002.01 -4002.24 -3973.95 -3882.19 -3626.74 -3313.36 -3195.56 -3038.11 -3228.04 -3129.40 -3674.17 -3812.65 -3954.40 -3960.51 -3843.48 -3797.84 -3525.66 -2920.31 -1947.57 -692.71 -276.18 -117.68 -59.60 -33.58 -9.53 -10.94 -25.33 -27.89 -19.04 -23.42 -29.47 -34.59 -40.67 -39.48 -51.29 -50.89 -87.15 -215.89 -299.42 -855.25 -1532.11 -2100.48 -2217.21 -2112.28 -2258.90 -2482.78 -2769.63 -3140.84 -3672.75 -3870.88 -3982.59 -3991.56 -4001.83 -4002.00 -4002.00 -4002.00 -4002.00 -4002.00 -4002.00 -4002.00 -4002.00 -4002.00 -4002.00 -4002.00 -4002.00 -4002.00 -4002.00 -4002.00 -4002.00 -4002.00 -4002.00 -4002.00 -4002.00 -4002.00 -4002.00 -4002.00 -4002.00 -4002.00 -4002.00 -4002.00 -4002.00 -4002.00 -4002.00 -4002.00 -4002.00 -4002.00 -4002.00 -4002.00 -4002.00 -4002.00 -4002.00 -4002.00 -4002.00 -4001.99 -4001.98 -4002.05
-4002.04 -4001.98 -4001.99 -4002.00 -4002.00 -4002.00 -4002.00 -4002.00 -4002.00 -4002.00 -4002.00 -4002.00 -4002.00 -4002.00 -4002.00 -4002.00 -4002.00 -4002.00 -4002.00 -4002.00 -4002.00 -4002.00 -4002.00 -4002.00 -4002.00 -4002.00 -4002.00 -4002.00 -4002.00 -4002.00 -4002.00 -4002.00 -4002.00 -4002.00 -4002.00 -4002.00 -4002.00 -4002.00 -4002.00 -4002.00 -4002.00 -4002.00 -4002.00 -4002.00 -4002.00 -4002.01 -3997.84 -3903.96 -3666.74 -3171.07 -2620.97 -1990.79 -1759.97 -2111.95 -2505.23 -2940.92 -3528.25 -3778.93 -3732.36 -3565.94 -3399.15 -3067.16 -2234.27 -1534.46 -824.80 -186.97 -93.55 -53.23 -38.63 -127.71 -284.39 -308.39 -213.10 -141.22 -72.46 -91.48 -99.93 -145.25 -140.60 -113.58 -123.65 -181.69 -314.75 -610.89 -1849.52 -2219.62 -2891.51 -3104.94 -3367.49 -3247.24 -3322.64 -3597.67 -3756.99 -3914.72 -3980.93 -3998.67 -4001.63 -4002.00 -4002.00 -4002.00 -4002.00 -4002.00 -4002.00 -4002.00 -4002.00 -4002.00 -4002.00 -4002.00 -4002.00 -4002.00 -4002.00 -4002.00 -4002.00 -4002.00 -4002.00 -4002.00 -4002.00 -4002.00 -4002.00 -4002.00 -4002.00 -4002.00 -4002.00 -4002.00 -4002.00 -4002.00 -4002.00 -4002.00 -4002.00 -4002.00 -4002.00 -4002.00 -4002.00 -4002.00 -4002.00 -4002.00 -4002.00 -4002.00 -4001.99 -4001.97 -4002.05
-4002.05 -4001.98 -4001.99 -4002.00 -4002.00 -4002.00 -4002.00 -4002.00 -4002.00 -4002.00 -4002.00 -4002.00 -4002.00 -4002.00 -4002.00 -4002.00 -4002.00 -4002.00 -4002.00 -4002.00 -4002.00 -4002.00 -4002.00 -4002.00 -4002.00 -4002.00 -4002.00 -4002.00 -4002.00 -4002.00 -4002.00 -4002.00 -4002.00 -4002.00 -4002.00 -4002.00 -4002.00 -4002.00 -4002.00 -4002.00 -4002.00 -4002.00 -4002.00 -4002.01 -4001.59 -3993.91 -3965.84 -3781.16 -3513.85 -2396.97 -1452.17 -898.12 -838.42 -1029.61 -1622.92 -2259.32 -3137.02 -3215.85 -2967.08 -2733.05 -2582.43 -2250.39 -1637.91 -1188.97 -395.32 -186.04 10.89 16.59 -82.35 -374.42 -717.42 -920.46 -658.86 -539.03 -489.18 -361.35 -473.03 -370.30 -409.04 -312.15 -339.19 -430.74 -621.28 -1417.13 -2294.51 -3163.35 -3576.41 -3837.86 -3793.47 -3785.71 -3864.95 -3891.17 -3915.58 -3992.75 -4001.08 -4002.14 -4002.00 -4002.00 -4002.00 -4002.00 -4002.00 -4002.00 -4002.00 -4002.00 -4002.00 -4002.00 -4002.00 -4002.00 -4002.00 -4002.00 -4002.00 -4002.00 -4002.00 -4002.00 -4002.00 -4002.00 -4002.00 -4002.00 -4002.00 -4002.00 -4002.00 -4002.00 -4002.00 -4002.00 -4002.00 -4002.00 -4002.00 -4002.00 -4002.00 -4002.00 -4002.00 -4002.00 -4002.00 -4002.00 -4002.00 -4002.00 -4002.00 -4002.00 -4001.99 -4001.98 -4002.05
-4002.05 -4001.97 -4001.99 -4002.00 -4002.00 -4002.00 -4002.00 -4002.00 -4002.00 -4002.00 -4002.00 -4002.00 -4002.00 -4002.00 -4002.00 -4002.00 -4002.00 -4002.00 -4002.00 -4002.00 -4002.00 -4002.00 -4002.00 -4002.00 -4002.00 -4002.00 -4002.00 -4002.00 -4002.00 -4002.00 -4002.00 -4002.00 -4002.00 -4002.00 -4002.00 -4002.00 -4002.00 -4002.00 -4002.00 -4002.00 -4002.00 -4002.01 -4002.00 -4000.97 -3992.90 -3976.00 -3864.73 -3752.56 -2959.02 -1993.61 -925.18 -522.08 -445.24 -513.81 -866.47 -1833.30 -2354.84 -2443.91 -2070.01 -1493.79 -1200.34 -986.68 -919.13 -648.39 -209.37 -31.34 131.92 81.34 -275.33 -860.56 -1639.33 -2025.03 -1589.10 -895.67 -1210.19 -1043.88 -1042.98 -1095.16 -983.46 -792.97 -1105.18 -937.04 -1617.95 -1923.79 -3052.75 -3483.58 -3924.90 -3979.28 -3984.50 -3981.70 -3988.72 -3985.62 -3997.47 -4001.97 -4001.97 -4002.00 -4002.00 -4002.00 -4002.00 -4002.00 -4002.00 -4002.00 -4002.00 -4002.00 -4002.00 -4002.00 -4002.00 -4002.00 -4002.00 -4002.00 -4002.00 -4002.00 -4002.00 -4002.00 -4002.00 -4002.00 -4002.00 -4002.00 -4002.00 -4002.00 -4002.00 -4002.00 -4002.00 -4002.00 -4002.00 -4002.00 -4002.00 -4002.00 -4002.00 -4002.00 -4002.00 -4002.00 -4002.00 -4002.00 -4002.00 -4002.00 -4002.00 -4002.00 -4001.99 -4001.98 -4002.05
-4002.05 -4001.98 -4001.99 -4002.00 -4002.00 -4002.00 -4002.00 -4002.00 -4002.00 -4002.00 -4002.00 -4002.00 -4002.00 -4002.00 -4002.00 -4002.00 -4002.00 -4002.00 -4002.00 -4002.00 -4002.00 -4002.00 -4002.00 -4002.00 -4002.00 -4002.00 -4002.00 -4002.00 -4002.00 -4002.00 -4002.00 -4002.00 -4002.00 -4002.00 -4002.00 -4002.00 -4002.00 -4002.00 -4002.00 -4002.00 -4001.90 -4001.61 -4000.86 -3985.72 -3936.74 -3763.36 -3639.08 -3229.14 -2340.61 -1198.77 -656.56 -289.80 -224.19 -360.24 -776.07 -831.95 -1257.61 -1166.62 -929.57 -878.10 -438.27 -367.05 -245.28 -33.20 72.30 143.82 164.58 57.88 -604.27 -1672.49 -2445.60 -2751.52 -2621.23 -2480.34 -2185.97 -2312.24 -2302.59 -2360.49 -2190.75 -2178.11 -1816.64 -2399.01 -2410.12 -2970.87 -3682.48 -3833.31 -3996.17 -3999.06 -4001.66 -4001.15 -3998.47 -4001.37 -4002.00 -4002.00 -4002.00 -4002.00 -4002.00 -4002.00 -4002.00 -4002.00 -4002.00 -4002.00 -4002.00 -4002.00 -4002.00 -4002.00 -4002.00 -4002.00 -4002.00 -4002.00 -4002.00 -4002.00 -4002.00 -4002.00 -4002.00 -4002.00 -4002.00 -4002.00 -4002.00 -4002.00 -4002.00 -4002.00 -4002.00 -4002.00 -4002.00 -4002.00 -4002.00 -4002.00 -4002.00 -4002.00 -4002.00 -4002.00 -4002.00 -4002.00 -4002.00 -4002.00 -4002.00 -4002.00 -4001.99 -4001.98 -4002.05
-4002.05 -4001.98 -4001.99 -4002.00 -4002.00 -4002.00 -4002.00 -4002.00 -4002.00 -4002.00 -4002.00 -4002.00 -4002.00 -4002.00 -4002.00 -4002.00 -4002.00 -4002.00 -4002.00 -4002.00 -4002.00 -4002.00 -4002.00 -4002.00 -4002.00 -4002.00 -4002.00 -4002.00 -4002.00 -4002.00 -4002.00 -4002.00 -4002.00 -4002.00 -4002.00 -4002.00 -4002.00 -4002.00 -4002.00 -4001.96 -4001.80 -3994.13 -3973.85 -3846.41 -3748.64 -3403.48 -2937.16 -2177.59 -1713.43 -964.36 -373.92 -217.91 -183.31 -217.45 -289.35 -463.56 -447.48 -470.39 -345.44 -202.20 -169.18 33.37 51.48 188.61 215.08 233.70 94.72 -154.24 -1063.47 -2356.81 -3255.25 -3420.96 -3430.35 -3234.62 -2988.87 -3100.89 -3331.71 -3301.09 -3272.61 -3034.20 -3092.87 -3110.06 -3093.12 -3536.19 -3844.66 -3976.78 -4000.45 -4002.00 -4001.98 -4001.84 -4002.00 -4002.00 -4002.00 -4002.00 -4002.00 -4002.00 -4002.00 -4002.00 -4002.00 -4002.00 -4002.00 -4002.00 -4002.00 -4002.00 -4002.00 -4002.00 -4002.00 -4002.00 -4002.00 -4002.00 -4002.00 -4002.00 -4002.00 -4002.00 -4002.00 -4002.00 -4002.00 -4002.00 -4002.00 -4002.00 -4002.00 -4002.00 -4002.00 -4002.00 -4002.00 -4002.00 -4002.00 -4002.00 -4002.00 -4002.00 -4002.00 -4002.00 -4002.00 -4002.00 -4002.00 -4002.00 -4002.00 -4002.00 -4001.99 -4001.97 -4002.05
-4002.05 -4001.98 -4001.99 -4002.00 -4002.00 -4002.00 -4002.00 -4002.00 -4002.00 -4002.00 -4002.00 -4002.00 -4002.00 -4002.00 -4002.00 -4002.00 -4002.00 -4002.00 -4002.00 -4002.00 -4002.00 -4002.00 -4002.00 -4002.00 -4002.00 -4002.00 -4002.00 -4002.00 -4002.00 -4002.00 -4002.00 -4002.00 -4002.00 -4002.00 -4002.00 -4002.00 -4002.00 -4002.00 -4002.02 -4002.06 -3993.62 -3950.64 -3881.67 -3691.62 -3127.18 -2551.85 -2051.61 -1527.31 -713.06 -538.46 -247.47 -199.21 -166.20 -167.62 -222.63 -267.84 -263.16 -237.33 -170.99 -51.90 26.47 127.67 277.89 310.54 309.01 254.02 68.49 -584.48 -1422.41 -2727.33 -3547.47 -3872.77 -3777.23 -3792.67 -3768.29 -3845.88 -3863.41 -3808.96 -3705.72 -3712.56 -3668.94 -3649.53 -3699.74 -3917.33 -3954.08 -3993.57 -4002.03 -4002.03 -4002.00 -4002.00 -4002.00 -4002.00 -4002.00 -4002.00 -4002.00 -4002.00 -4002.00 -4002.00 -4002.00 -4002.00 -4002.00 -4002.00 -4002.00 -4002.00 -4002.00 -4002.00 -4002.00 -4002.00 -4002.00 -4002.00 -4002.00 -4002.00 -4002.00 -4002.00 -4002.00 -4002.00 -4002.00 -4002.00 -4002.00 -4002.00 -4002.00 -4002.00 -4002.00 -4002.00 -4002.00 -4002.00 -4002.00 -4002.00 -4002.00 -4002.00 -4002.00 -4002.00 -4002.00 -4002.00 -4002.00 -4002.00 -4002.00 -4002.00 -4001.99 -4001.99 -4002.05
-4002.05 -4001.98 -4001.99 -4002.00 -4002.00 -4002.00 -4002.00 -4002.00 -4002.00 -4002.00 -4002.00 -4002.00 -4002.00 -4002.00 -4002.00 -4002.00 -4002.00 -4002.00 -4002.00 -4002.00 -4002.00 -4002.00 -4002.00 -4002.00 -4002.00 -4002.00 -4002.00 -4002.00 -4002.00 -4002.00 -4002.00 -4002.00 -4002.00 -4002.00 -4002.00 -4002.00 -4002.00 -4002.00 -4002.00 -4000.17 -3988.54 -3810.74 -3638.19 -2736.02 -2377.65 -1791.38 -1178.53 -525.46 -353.42 -296.96 -178.46 -154.90 -168.37 -190.22 -339.04 -312.62 -157.73 -83.69 -19.10 21.25 50.26 143.66 241.92 285.83 258.50 103.34 8.11 -822.84 -2191.86 -3149.71 -3694.61 -3913.93 -3981.55 -3983.01 -3978.24 -3979.08 -3989.20 -3985.65 -3947.33 -3958.57 -3962.33 -3956.80 -3964.80 -3980.92 -3997.18 -4001.94 -4002.00 -4002.00 -4002.00 -4002.00 -4002.00 -4002.00 -4002.00 -4002.00 -4002.00 -4002.00 -4002.00 -4002.00 -4002.00 -4002.00 -4002.00 -4002.00 -4002.00 -4002.00 -4002.00 -4002.00 -4002.00 -4002.00 -4002.00 -4002.00 -4002.00 -4002.00 -4002.00 -4002.00 -4002.00 -4002.00 -4002.00 -4002.00 -4002.00 -4002.00 -4002.00 -4002.00 -4002.00 -4002.00 -4002.00 -4002.00 -4002.00 -4002.00 -4002.00 -4002.00 -4002.00 -4002.00 -4002.00 -4002.00 -4002.00 -4002.00 -4002.00 -4002.00 -4001.99 -4001.97 -4002.05
-4002.05 -4001.97 -4001.99 -4002.00 -4002.00 -4002.00 -4002.00 -4002.00 -4002.00 -4002.00 -4002.00 -4002.00 -4002.00 -4002.00 -4002.00 -4002.00 -4002.00 -4002.00 -4002.00 -4002.00 -4002.00 -4002.00 -4002.00 -4002.00 -4002.00 -4002.00 -4002.00 -4002.00 -4002.00 -4002.00 -4002.00 -4002.00 -4002.00 -4002.00 -4002.00 -4002.00 -4002.00 -4002.00 -4002.00 -4002.21 -3980.89 -3826.29 -3278.05 -2793.19 -1514.00 -705.49 -349.04 -287.06 -210.68 -168.59 -127.65 -164.80 -274.02 -606.01 -623.52 -662.91 -251.42 -8.53 37.51 -42.18 19.46 72.70 -49.52 -78.40 -289.82 -468.73 -868.33 -1425.74 -2696.92 -3351.19 -3751.13 -3966.46 -4000.94 -3998.56 -3998.00 -4001.87 -4001.97 -3999.16 -4000.32 -3998.50 -3998.86 -4000.41 -3999.37 -4000.95 -4001.61 -4002.00 -4002.00 -4002.00 -4002.00 -4002.00 -4002.00 -4002.00 -4002.00 -4002.00 -4002.00 -4002.00 -4002.00 -4002.00 -4002.00 -4002.00 -4002.00 -4002.00 -4002.00 -4002.00 -4002.00 -4002.00 -4002.00 -4002.00 -4002.00 -4002.00 -4002.00 -4002.00 -4002.00 -4002.00 -4002.00 -4002.00 -4002.00 -4002.00 -4002.00 -4002.00 -4002.00 -4002.00 -4002.00 -4002.00 -4002.00 -4002.00 -4002.00 -4002.00 -4002.00 -4002.00 -4002.00 -4002.00 -4002.00 -4002.00 -4002.00 -4002.00 -4002.00 -4002.00 -4001.99 -4001.99 -4002.05
-4002.05 -4001.97 -4001.99 -4002.00 -4002.00 -4002.00 -4002.00 -4002.00 -4002.00 -4002.00 -4002.00 -4002.00 -4002.00 -4002.00 -4002.00 -4002.00 -4002.00 -4002.00 -4002.00 -4002.00 -4002.00 -4002.00 -4002.00 -4002.00 -4002.00 -4002.00 -4002.00 -4002.00 -4002.00 -4002.00 -4002.00 -4002.00 -4002.00 -4002.00 -4002.00 -4002.00 -4002.00 -4002.00 -4002.02 -4002.20 -3933.48 -3704.33 -2872.18 -2021.21 -762.02 -366.05 -278.55 -238.75 -247.36 -222.79 -124.18 -304.80 -826.09 -1505.74 -1552.78 -1328.83 -484.02 -245.04 -39.32 -328.83 -652.69 -1044.85 -1159.65 -1195.52 -1400.65 -1476.72 -1606.70 -2324.14 -3066.98 -3599.85 -3889.84 -3996.88 -4001.86 -4002.00 -4002.01 -4002.00 -4002.00 -4002.00 -4002.00 -4002.01 -4002.02 -4002.02 -4002.00 -4001.73 -4002.01 -4002.00 -4002.00 -4002.00 -4002.00 -4002.00 -4002.00 -4002.00 -4002.00 -4002.00 -4002.00 -4002.00 -4002.00 -4002.00 -4002.00 -4002.00 -4002.00 -4002.00 -4002.00 -4002.00 -4002.00 -4002.00 -4002.00 -4002.00 -4002.00 -4002.00 -4002.00 -4002.00 -4002.00 -4002.00 -4002.00 -4002.00 -4002.00 -4002.00 -4002.00 -4002.00 -4002.00 -4002.00 -4002.00 -4002.00 -4002.00 -4002.00 -4002.00 -4002.00 -4002.00 -4002.00 -4002.00 -4002.00 -4002.00 -4002.00 -4002.00 -4002.00 -4002.00 -4002.00 -4001.99 -4001.99 -4002.05
-4002.05 -4001.98 -4001.99 -4002.00 -4002.00 -4002.00 -4002.00 -4002.00 -4002.00 -4002.00 -4002.00 -4002.00 -4002.00 -4002.00 -4002.00 -4002.00 -4002.00 -4002.00 -4002.00 -4002.00 -4002.00 -4002.00 -4002.00 -4002.00 -4002.00 -4002.00 -4002.00 -4002.00 -4002.00 -4002.00 -4002.00 -4002.00 -4002.00 -4002.00 -4002.00 -4002.00 -4002.00 -4002.00 -4002.13 -3995.93 -3902.38 -3353.04 -2661.01 -1183.07 -403.84 -185.20 -356.35 -485.12 -519.45 -324.01 -236.07 -1045.03 -1445.11 -2313.41 -2642.79 -1987.85 -1103.93 -836.04 -802.89 -1311.57 -1489.52 -2094.20 -2253.68 -1948.15 -2210.08 -2581.55 -3011.70 -3274.34 -3631.59 -3846.93 -3971.83 -4000.85 -4002.01 -4002.00 -4002.00 -4002.00 -4002.00 -4002.00 -4002.00 -4002.00 -4002.00 -4002.00 -4002.00 -4002.00 -4002.00 -4002.00 -4002.00 -4002.00 -4002.00 -4002.00 -4002.00 -4002.00 -4002.00 -4002.00 -4002.00 -4002.00 -4002.00 -4002.00 -4002.00 -4002.00 -4002.00 -4002.00 -4002.00 -4002.00 -4002.00 -4002.00 -4002.00 -4002.00 -4002.00 -4002.00 -4002.00 -4002.00 -4002.00 -4002.00 -4002.00 -4002.00 -4002.00 -4002.00 -4002.00 -4002.00 -4002.00 -4002.00 -4002.00 -4002.00 -4002.00 -4002.00 -4002.00 -4002.00 -4002.00 -4002.00 -4002.00 -4002.00 -4002.00 -4002.00 -4002.00 -4002.00 -4002.00 -4002.00 -4001.99 -4001.98 -4002.05
-4002.05 -4001.98 -4001.99 -4002.00 -4002.00 -4002.00 -4002.00 -4002.00 -4002.00 -4002.00 -4002.00 -4002.00 -4002.00 -4002.00 -4002.00 -4002.00 -4002.00 -4002.00 -4002.00 -4002.00 -4002.00 -4002.00 -4002.00 -4002.00 -4002.00 -4002.00 -4002.00 -4002.00 -4002.00 -4002.00 -4002.00 -4002.00 -4002.00 -4002.00 -4002.00 -4002.00 -4002.00 -4002.00 -3998.12 -3984.38 -3718.36 -3204.00 -2304.82 -839.92 -442.98 -470.09 -680.22 -1288.50 -1202.88 -833.03 -603.61 -1019.24 -1986.46 -3109.74 -3381.10 -2823.62 -2269.63 -2231.94 -2188.20 -2693.08 -2939.24 -3314.37 -3344.70 -3460.00 -3491.15 -3533.14 -3680.83 -3819.33 -3864.60 -3967.02 -3998.59 -4001.00 -4002.00 -4002.00 -4002.00 -4002.00 -4002.00 -4002.00 -4002.00 -4002.00 -4002.00 -4002.00 -4002.00 -4002.00 -4002.00 -4002.00 -4002.00 -4002.00 -4002.00 -4002.00 -4002.00 -4002.00 -4002.00 -4002.00 -4002.00 -4002.00 -4002.00 -4002.00 -4002.00 -4002.00 -4002.00 -4002.00 -4002.00 -4002.00 -4002.00 -4002.00 -4002.00 -4002.00 -4002.00 -4002.00 -4002.00 -4002.00 -4002.00 -4002.00 -4002.00 -4002.00 -4002.00 -4002.00 -4002.00 -4002.00 -4002.00 -4002.00 -4002.00 -4002.00 -4002.00 -4002.00 -4002.00 -4002.00 -4002.00 -4002.00 -4002.00 -4002.00 -4002.00 -4002.00 -4002.00 -4002.00 -4002.00 -4002.00 -4001.99 -4001.98 -4002.05
-4002.05 -4001.98 -4001.99 -4002.00 -4002.00 -4002.00 -4002.00 -4002.00 -4002.00 -4002.00 -4002.00 -4002.00 -4002.00 -4002.00 -4002.00 -4002.00 -4002.00 -4002.00 -4002.00 -4002.00 -4002.00 -4002.00 -4002.00 -4002.00 -4002.00 -4002.00 -4002.00 -4002.00 -4002.00 -4002.00 -4002.00 -4002.00 -4002.00 -4002.00 -4002.00 -4002.00 -4002.00 -4002.03 -3998.38 -3944.70 -3713.88 -3125.19 -1799.49 -1125.60 -1010.15 -1575.56 -2277.73 -2407.72 -2498.03 -1895.83 -1075.09 -1418.79 -2079.22 -3337.95 -3700.47 -3512.70 -3408.67 -2960.94 -3180.86 -3591.22 -3570.14 -3809.37 -3828.22 -3829.05 -3845.86 -3952.37 -3991.84 -3964.91 -3996.74 -3995.27 -4001.70 -4001.86 -4002.00 -4002.00 -4002.00 -4002.00 -4002.00 -4002.00 -4002.00 -4002.00 -4002.00 -4002.00 -4002.00 -4002.00 -4002.00 -4002.00 -4002.00 -4002.00 -4002.00 -4002.00 -4002.00 -4002.00 -4002.00 -4002.00 -4002.00 -4002.00 -4002.00 -4002.00 -4002.00 -4002.00 -4002.00 -4002.00 -4002.00 -4002.00 -4002.00 -4002.00 -4002.00 -4002.00 -4002.00 -4002.00 -4002.00 -4002.00 -4002.00 -4002.00 -4002.00 -4002.00 -4002.00 -4002.00 -4002.00 -4002.00 -4002.00 -4002.00 -4002.00 -4002.00 -4002.00 -4002.00 -4002.00 -4002.00 -4002.00 -4002.00 -4002.00 -4002.00 -4002.00 -4002.00 -4002.00 -4002.00 -4002.00 -4002.00 -4001.99 -4001.98 -4002.05
-4002.05 -4001.97 -4001.99 -4002.00 -4002.00 -4002.00 -4002.00 -4002.00 -4002.00 -4002.00 -4002.00 -4002.00 -4002.00 -4002.00 -4002.00 -4002.00 -4002.00 -4002.00 -4002.00 -4002.00 -4002.00 -4002.00 -4002.00 -4002.00 -4002.00 -4002.00 -4002.00 -4002.00 -4002.00 -4002.00 -4002.00 -4002.00 -4002.00 -4002.00 -4002.00 -4002.00 -4002.00 -4002.00 -3998.23 -3935.82 -3800.84 -2719.88 -2113.45 -1463.50 -1869.43 -2324.88 -2916.56 -3412.44 -3267.56 -3088.46 -1917.40 -1892.64 -2427.76 -3153.41 -3656.75 -3769.76 -3762.29 -3755.73 -3726.73 -3872.03 -3983.27 -3976.72 -3985.89 -3986.89 -3994.57 -3994.35 -4000.95 -4001.57 -4001.94 -4002.02 -4002.00 -4002.00 -4002.00 -4002.00 -4002.00 -4002.00 -4002.00 -4002.00 -4002.00 -4002.00 -4002.00 -4002.00 -4002.00 -4002.00 -4002.00 -4002.00 -4002.00 -4002.00 -4002.00 -4002.00 -4002.00 -4002.00 -4002.00 -4002.00 -4002.00 -4002.00 -4002.00 -4002.00 -4002.00 -4002.00 -4002.00 -4002.00 -4002.00 -4002.00 -4002.00 -4002.00 -4002.00 -4002.00 -4002.00 -4002.00 -4002.00 -4002.00 -4002.00 -4002.00 -4002.00 -4002.00 -4002.00 -4002.00 -4002.00 -4002.00 -4002.00 -4002.00 -4002.00 -4002.00 -4002.00 -4002.00 -4002.00 -4002.00 -4002.00 -4002.00 -4002.00 -4002.00 -4002.00 -4002.00 -4002.00 -4002.00 -4002.00 -4002.00 -4001.99 -4001.98 -4002.06
-4002.06 -4001.98 -4001.99 -4002.00 -4002.00 -4002.00 -4002.00 -4002.00 -4002.00 -4002.00 -4002.00 -4002.00 -4002.00 -4002.00 -4002.00 -4002.00 -4002.00 -4002.00 -4002.00 -4002.00 -4002.00 -4002.00 -4002.00 -4002.00 -4002.00 -4002.00 -4002.00 -4002.00 -4002.00 -4002.00 -4002.00 -4002.00 -4002.00 -4002.00 -4002.00 -4002.00 -4002.00 -4002.04 -3998.12 -3927.60 -3701.99 -3271.91 -2609.31 -2402.71 -2606.40 -3250.99 -3684.72 -3880.70 -3817.25 -3357.85 -2910.05 -2365.44 -2725.15 -2887.94 -3584.02 -3836.54 -3921.58 -3953.16 -3963.22 -3993.45 -4000.10 -4001.76 -4001.81 -4001.17 -4002.02 -4002.02 -4002.03 -4002.01 -4002.00 -4002.00 -4002.00 -4002.00 -4002.00 -4002.00 -4002.00 -4002.00 -4002.00 -4002.00 -4002.00 -4002.00 -4002.00 -4002.00 -4002.00 -4002.00 -4002.00 -4002.00 -4002.00 -4002.00 -4002.00 -4002.00 -4002.00 -4002.00 -4002.00 -4002.00 -4002.00 -4002.00 -4002.00 -4002.00 -4002.00 -4002.00 -4002.00 -4002.00 -4002.00 -4002.00 -4002.00 -4002.00 -4002.00 -4002.00 -4002.00 -4002.00 -4002.00 -4002.00 -4002.00 -4002.00 -4002.00 -4002.00 -4002.00 -4002.00 -4002.00 -4002.00 -4002.00 -4002.00 -4002.00 -4002.00 -4002.00 -4002.00 -4002.00 -4002.00 -4002.00 -4002.00 -4002.00 -4002.00 -4002.00 -4002.00 -4002.00 -4002.00 -4002.00 -4002.00 -4001.99 -4001.98 -4002.06
-4002.06 -4001.98 -4001.99 -4002.00 -4002.00 -4002.00 -4002.00 -4002.00 -4002.00 -4002.00 -4002.00 -4002.00 -4002.00 -4002.00 -4002.00 -4002.00 -4002.00 -4002.00 -4002.00 -4002.00 -4002.00 -4002.00 -4002.00 -4002.00 -4002.00 -4002.00 -4002.00 -4002.00 -4002.00 -4002.00 -4002.00 -4002.00 -4002.00 -4002.00 -4002.00 -4002.00 -4002.00 -4002.02 -4002.10 -3986.45 -3920.66 -3624.32 -3530.62 -3412.98 -3469.00 -3861.67 -3928.98 -3987.44 -3964.38 -3808.12 -3565.73 -3258.43 -3132.02 -3162.26 -3546.74 -3842.03 -3965.15 -3995.17 -4000.26 -4000.79 -4001.78 -4002.01 -4002.00 -4002.00 -4002.00 -4002.00 -4002.00 -4002.00 -4002.00 -4002.00 -4002.00 -4002.00 -4002.00 -4002.00 -4002.00 -4002.00 -4002.00 -4002.00 -4002.00 -4002.00 -4002.00 -4002.00 -4002.00 -4002.00 -4002.00 -4002.00 -4002.00 -4002.00 -4002.00 -4002.00 -4002.00 -4002.00 -4002.00 -4002.00 -4002.00 -4002.00 -4002.00 -4002.00 -4002.00 -4002.00 -4002.00 -4002.00 -4002.00 -4002.00 -4002.00 -4002.00 -4002.00 -4002.00 -4002.00 -4002.00 -4002.00 -4002.00 -4002.00 -4002.00 -4002.00 -4002.00 -4002.00 -4002.00 -4002.00 -4002.00 -4002.00 -4002.00 -4002.00 -4002.00 -4002.00 -4002.00 -4002.00 -4002.00 -4002.00 -4002.00 -4002.00 -4002.00 -4002.00 -4002.00 -4002.00 -4002.00 -4002.00 -4002.00 -4001.99 -4001.97 -4002.06
-4002.06 -4001.98 -4001.99 -4002.00 -4002.00 -4002.00 -4002.00 -4002.00 -4002.00 -4002.00 -4002.00 -4002.00 -4002.00 -4002.00 -4002.00 -4002.00 -4002.00 -4002.00 -4002.00 -4002.00 -4002.00 -4002.00 -4002.00 -4002.00 -4002.00 -4002.00 -4002.00 -4002.00 -4002.00 -4002.00 -4002.00 -4002.00 -4002.00 -4002.00 -4002.00 -4002.00 -4002.00 -4002.01 -4002.03 -3997.99 -3996.71 -3893.54 -3798.96 -3764.35 -3816.50 -3978.29 -3987.16 -3997.74 -3989.44 -3937.03 -3817.06 -3670.16 -3541.52 -3552.06 -3800.55 -3891.55 -3982.15 -4000.51 -4002.06 -4001.96 -4002.00 -4002.00 -4002.00 -4002.00 -4002.00 -4002.00 -4002.00 -4002.00 -4002.00 -4002.00 -4002.00 -4002.00 -4002.00 -4002.00 -4002.00 -4002.00 -4002.00 -4002.00 -4002.00 -4002.00 -4002.00 -4002.00 -4002.00 -4002.00 -4002.00 -4002.00 -4002.00 -4002.00 -4002.00 -4002.00 -4002.00 -4002.00 -4002.00 -4002.00 -4002.00 -4002.00 -4002.00 -4002.00 -4002.00 -4002.00 -4002.00 -4002.00 -4002.00 -4002.00 -4002.00 -4002.00 -4002.00 -4002.00 -4002.00 -4002.00 -4002.00 -4002.00 -4002.00 -4002.00 -4002.00 -4002.00 -4002.00 -4002.00 -4002.00 -4002.00 -4002.00 -4002.00 -4002.00 -4002.00 -4002.00 -4002.00 -4002.00 -4002.00 -4002.00 -4002.00 -4002.00 -4002.00 -4002.00 -4002.00 -4002.00 -4002.00 -4002.00 -4002.00 -4001.99 -4001.98 -4002.06
-4002.06 -4001.98 -4001.99 -4002.00 -4002.00 -4002.00 -4002.00 -4002.00 -4002.00 -4002.00 -4002.00 -4002.00 -4002.00 -4002.00 -4002.00 -4002.00 -4002.00 -4002.00 -4002.00 -4002.00 -4002.00 -4002.00 -4002.00 -4002.00 -4002.00 -4002.00 -4002.00 -4002.00 -4002.00 -4002.00 -4002.00 -4002.00 -4002.00 -4002.00 -4002.00 -4002.00 -4002.00 -4002.00 -4002.00 -4001.04 -3998.76 -3979.25 -3971.47 -3966.27 -3991.16 -3993.89 -4000.54 -4001.85 -4000.45 -3983.60 -3956.81 -3908.25 -3882.56 -3931.56 -3932.72 -3978.77 -4000.85 -4001.95 -4002.01 -4002.00 -4002.00 -4002.00 -4002.00 -4002.00 -4002.00 -4002.00 -4002.00 -4002.00 -4002.00 -4002.00 -4002.00 -4002.00 -4002.00 -4002.00 -4002.00 -4002.00 -4002.00 -4002.00 -4002.00 -4002.00 -4002.00 -4002.00 -4002.00 -4002.00 -4002.00 -4002.00 -4002.00 -4002.00 -4002.00 -4002.00 -4002.00 -4002.00 -4002.00 -4002.00 -4002.00 -4002.00 -4002.00 -4002.00 -4002.00 -4002.00 -4002.00 -4002.00 -4002.00 -4002.00 -4002.00 -4002.00 -4002.00 -4002.00 -4002.00 -4002.00 -4002.00 -4002.00 -4002.00 -4002.00 -4002.00 -4002.00 -4002.00 -4002.00 -4002.00 -4002.00 -4002.00 -4002.00 -4002.00 -4002.00 -4002.00 -4002.00 -4002.00 -4002.00 -4002.00 -4002.00 -4002.00 -4002.00 -4002.00 -4002.00 -4002.00 -4002.00 -4002.00 -4002.00 -4001.99 -4001.97 -4002.06
-4002.06 -4001.98 -4001.99 -4002.00 -4002.00 -4002.00 -4002.00 -4002.00 -4002.00 -4002.00 -4002.00 -4002.00 -4002.00 -4002.00 -4002.00 -4002.00 -4002.00 -4002.00 -4002.00 -4002.00 -4002.00 -4002.00 -4002.00 -4002.00 -4002.00 -4002.00 -4002.00 -4002.00 -4002.00 -4002.00 -4002.00 -4002.00 -4002.00 -4002.00 -4002.00 -4002.00 -4002.00 -4002.00 -4002.00 -4001.97 -4001.88 -4000.74 -3997.58 -3999.34 -4001.83 -4001.81 -4002.01 -4002.00 -4002.00 -4002.01 -4000.49 -4000.76 -3991.29 -3988.40 -3987.74 -3998.50 -4001.57 -4002.01 -4002.00 -4002.00 -4002.00 -4002.00 -4002.00 -4002.00 -4002.00 -4002.00 -4002.00 -4002.00 -4002.00 -4002.00 -4002.00 -4002.00 -4002.00 -4002.00 -4002.00 -4002.00 -4002.00 -4002.00 -4002.00 -4002.00 -4002.00 -4002.00 -4002.00 -4002.00 -4002.00 -4002.00 -4002.00 -4002.00 -4002.00 -4002.00 -4002.00 -4002.00 -4002.00 -4002.00 -4002.00 -4002.00 -4002.00 -4002.00 -4002.00 -4002.00 -4002.00 -4002.00 -4002.00 -4002.00 -4002.00 -4002.00 -4002.00 -4002.00 -4002.00 -4002.00 -4002.00 -4002.00 -4002.00 -4002.00 -4002.00 -4002.00 -4002.00 -4002.00 -4002.00 -4002.00 -4002.00 -4002.00 -4002.00 -4002.00 -4002.00 -4002.00 -4002.00 -4002.00 -4002.00 -4002.00 -4002.00 -4002.00 -4002.00 -4002.00 -4002.00 -4002.00 -4002.00 -4002.00 -4001.99 -4001.98 -4002.06
-4002.06 -4001.98 -4001.99 -4002.00 -4002.00 -4002.00 -4002.00 -4002.00 -4002.00 -4002.00 -4002.00 -4002.00 -4002.00 -4002.00 -4002.00 -4002.00 -4002.00 -4002.00 -4002.00 -4002.00 -4002.00 -4002.00 -4002.00 -4002.00 -4002.00 -4002.00 -4002.00 -4002.00 -4002.00 -4002.00 -4002.00 -4002.00 -4002.00 -4002.00 -4002.00 -4002.00 -4002.00 -4002.00 -4002.00 -4002.00 -4002.00 -4002.03 -4001.97 -4002.03 -4002.03 -4001.92 -4002.00 -4002.00 -4002.00 -4002.01 -4002.01 -4001.99 -4001.80 -4001.63 -4001.73 -4002.01 -4002.01 -4002.00 -4002.00 -4002.00 -4002.00 -4002.00 -4002.00 -4002.00 -4002.00 -4002.00 -4002.00 -4002.00 -4002.00 -4002.00 -4002.00 -4002.00 -4002.00 -4002.00 -4002.00 -4002.00 -4002.00 -4002.00 -4002.00 -4002.00 -4002.00 -4002.00 -4002.00 -4002.00 -4002.00 -4002.00 -4002.00 -4002.00 -4002.00 -4002.00 -4002.00 -4002.00 -4002.00 -4002.00 -4002.00 -4002.00 -4002.00 -4002.00 -4002.00 -4002.00 -4002.00 -4002.00 -4002.00 -4002.00 -4002.00 -4002.00 -4002.00 -4002.00 -4002.00 -4002.00 -4002.00 -4002.00 -4002.00 -4002.00 -4002.00 -4002.00 -4002.00 -4002.00 -4002.00 -4002.00 -4002.00 -4002.00 -4002.00 -4002.00 -4002.00 -4002.00 -4002.00 -4002.00 -4002.00 -4002.00 -4002.00 -4002.00 -4002.00 -4002.00 -4002.00 -4002.00 -4002.00 -4002.00 -4001.99 -4001.98 -4002.06
-4002.06 -4001.98 -4001.99 -4002.00 -4002.00 -4002.00 -4002.00 -4002.00 -4002.00 -4002.00 -4002.00 -4002.00 -4002.00 -4002.00 -4002.00 -4002.00 -4002.00 -4002.00 -4002.00 -4002.00 -4002.00 -4002.00 -4002.00 -4002.00 -4002.00 -4002.00 -4002.00 -4002.00 -4002.00 -4002.00 -4002.00 -4002.00 -4002.00 -4002.00 -4002.00 -4002.00 -4002.00 -4002.00 -4002.00 -4002.00 -4002.00 -4002.00 -4002.00 -4002.00 -4002.00 -4002.00 -4002.00 -4002.00 -4002.00 -4002.00 -4002.00 -4002.00 -4002.00 -4002.01 -4002.01 -4002.00 -4002.00 -4002.00 -4002.00 -4002.00 -4002.00 -4002.00 -4002.00 -4002.00 -4002.00 -4002.00 -4002.00 -4002.00 -4002.00 -4002.00 -4002.00 -4002.00 -4002.00 -4002.00 -4002.00 -4002.00 -4002.00 -4002.00 -4002.00 -4002.00 -4002.00 -4002.00 -4002.00 -4002.00 -4002.00 -4002.00 -4002.00 -4002.00 -4002.00 -4002.00 -4002.00 -4002.00 -4002.00 -4002.00 -4002.00 -4002.00 -4002.00 -4002.00 -4002.00 -4002.00 -4002.00 -4002.00 -4002.00 -4002.00 -4002.00 -4002.00 -4002.00 -4002.00 -4002.00 -4002.00 -4002.00 -4002.00 -4002.00 -4002.00 -4002.00 -4002.00 -4002.00 -4002.00 -4002.00 -4002.00 -4002.00 -4002.00 -4002.00 -4002.00 -4002.00 -4002.00 -4002.00 -4002.00 -4002.00 -4002.00 -4002.00 -4002.00 -4002.00 -4002.00 -4002.00 -4002.00 -4002.00 -4002.00 -4001.99 -4001.97 -4002.06
-4002.07 -4001.97 -4001.99 -4002.00 -4002.00 -4002.00 -4002.00 -4002.00 -4002.00 -4002.00 -4002.00 -4002.00 -4002.00 -4002.00 -4002.00 -4002.00 -4002.00 -4002.00 -4002.00 -4002.00 -4002.00 -4002.00 -4002.00 -4002.00 -4002.00 -4002.00 -4002.00 -4002.00 -4002.00 -4002.00 -4002.00 -4002.00 -4002.00 -4002.00 -4002.00 -4002.00 -4002.00 -4002.00 -4002.00 -4002.00 -4002.00 -4002.00 -4002.00 -4002.00 -4002.00 -4002.00 -4002.00 -4002.00 -4002.00 -4002.00 -4002.00 -4002.00 -4002.00 -4002.00 -4002.00 -4002.00 -4002.00 -4002.00 -4002.00 -4002.00 -4002.00 -4002.00 -4002.00 -4002.00 -4002.00 -4002.00 -4002.00 -4002.00 -4002.00 -4002.00 -4002.00 -4002.00 -4002.00 -4002.00 -4002.00 -4002.00 -4002.00 -4002.00 -4002.00 -4002.00 -4002.00 -4002.00 -4002.00 -4002.00 -4002.00 -4002.00 -4002.00 -4002.00 -4002.00 -4002.00 -4002.00 -4002.00 -4002.00 -4002.00 -4002.00 -4002.00 -4002.00 -4002.00 -4002.00 -4002.00 -4002.00 -4002.00 -4002.00 -4002.00 -4002.00 -4002.00 -4002.00 -4002.00 -4002.00 -4002.00 -4002.00 -4002.00 -4002.00 -4002.00 -4002.00 -4002.00 -4002.00 -4002.00 -4002.00 -4002.00 -4002.00 -4002.00 -4002.00 -4002.00 -4002.00 -4002.00 -4002.00 -4002.00 -4002.00 -4002.00 -4002.00 -4002.00 -4002.00 -4002.00 -4002.00 -4002.00 -4002.00 -4002.00 -4001.99 -4001.97 -4002.07
