-5224.87 -5233.49 -5226.18 -5212.19 -5229.65 -5155.22 -5153.80 -5124.83 -5148.89 -5171.72 -5133.10 -5132.92 -5137.16 -5134.35 -5149.15 -5162.84 -5194.50 -5195.27 -5208.30 -5209.36 -5190.32 -5090.92 -4728.10 -4170.58 -3464.81 -3598.95 -3638.21 -4346.55 -4434.23 -4715.82 -4490.30 -3784.05 -3132.39 -2832.56 -2532.00 -2198.91 -2045.97 -2058.07 -2176.32 -2234.48 -2397.43 -2411.09 -2693.67 -3055.06 -3700.16 -4135.41 -4737.11 -5112.34 -5191.95 -5147.60 -5254.18 -5353.52 -5459.78 -5432.48 -5468.09 -5480.16 -5479.09 -5468.27 -5464.73 -5461.91 -5456.78 -5455.18 -5444.65 -5400.52 -5332.78 -5282.57 -5240.49 -5135.66 -4832.13 -4346.00 -3836.07 -3563.67 -3373.69 -3256.39 -2747.36 -1607.53 -339.90 -5.14 -0.23 17.98 52.52 75.00 94.54 134.12 180.11 297.55 489.17 788.79 1148.41 1328.22 1216.80 1150.69 1316.07 1223.76 1360.05 898.93 254.46 96.11 35.29 -40.02 -143.86 -1351.18 -5679.29 -4591.09 -3700.55 -3302.96 -2516.77 -1832.31 -1036.62 -1071.25 -1857.58 -4456.88 -6071.61 -6724.31 -6592.00 -6353.22 -5853.24 -5771.43 -5443.96 -5096.08 -4112.20 -3491.15 -3540.63 -3950.06 -4180.36 -4345.11 -4450.63 -4446.76 -4433.54 -4411.48 -4393.28 -4363.58 -4351.98 -4351.63 -4340.03 -4331.13 -4322.87 -4321.68 -4314.69 -4312.86 -4310.29
-5435.69 -5408.41 -5361.32 -5349.84 -5320.22 -5298.93 -5277.36 -5254.62 -5201.91 -5233.28 -5210.36 -5189.29 -5202.79 -5233.88 -5297.87 -5269.82 -5319.20 -5294.20 -5279.71 -5273.23 -5242.56 -5066.03 -4359.34 -3332.08 -2635.63 -2530.74 -2994.57 -3318.52 -3240.21 -3664.42 -3840.87 -3215.52 -2364.13 -2092.90 -1988.60 -1803.88 -1429.33 -1584.56 -1476.23 -1966.39 -1652.41 -2272.90 -2471.64 -2683.93 -2952.21 -3235.47 -4058.59 -4491.22 -4559.08 -4735.88 -4906.47 -5151.92 -5156.21 -5280.14 -5380.62 -5450.75 -5424.91 -5453.01 -5454.67 -5459.10 -5453.11 -5444.43 -5441.71 -5437.04 -5386.39 -5340.32 -5241.45 -5136.22 -4715.35 -4265.20 -3790.63 -3498.72 -3461.71 -3417.05 -2534.40 -439.11 -96.06 21.67 26.57 55.21 73.24 98.93 128.68 155.62 195.46 266.70 343.85 649.69 1057.06 1136.96 1439.07 1575.50 1615.33 1534.47 1484.28 683.28 430.04 181.74 39.02 -17.91 -329.97 -1500.89 -5689.38 -5215.96 -4733.57 -4357.68 -3709.92 -3043.30 -2399.15 -1922.92 -1845.92 -2515.39 -2987.75 -3497.67 -3699.79 -3449.58 -5038.78 -5059.86 -4694.64 -4654.65 -4096.18 -3729.95 -3629.50 -3829.20 -4266.06 -4414.31 -4438.72 -4426.67 -4401.53 -4372.37 -4356.60 -4345.26 -4341.17 -4336.60 -4327.88 -4316.32 -4310.38 -4301.27 -4299.39 -4294.77 -4294.82
-5609.76 -5609.57 -5526.95 -5484.46 -5455.78 -5481.27 -5504.36 -5443.30 -5428.79 -5376.39 -5346.92 -5309.16 -5385.07 -5395.32 -5410.79 -5401.32 -5398.97 -5468.57 -5457.67 -5434.23 -5339.52 -5056.87 -4193.32 -3369.61 -2234.90 -2135.22 -2208.97 -2349.08 -2480.20 -2797.69 -2849.21 -2567.96 -2182.68 -1768.38 -1356.54 -706.20 -681.98 -447.49 -452.51 -729.50 -817.47 -2016.22 -2242.48 -2052.57 -2315.62 -2537.78 -3015.86 -3361.44 -3789.63 -3672.93 -3879.01 -4185.14 -4441.16 -4630.31 -5013.91 -5150.37 -5397.67 -5389.26 -5339.96 -5416.45 -5403.78 -5420.77 -5349.03 -5317.49 -5242.26 -5024.95 -5030.85 -4444.66 -4058.49 -3654.56 -3213.74 -3278.48 -3438.71 -2442.92 -1443.51 -190.32 34.09 57.11 56.85 72.47 90.92 116.14 147.68 170.09 220.45 255.90 292.39 429.83 528.30 736.44 915.41 1163.28 1288.72 1516.47 1582.77 997.57 802.30 199.85 80.15 -8.47 -46.07 -668.82 -3705.06 -5622.70 -5348.42 -4749.12 -4613.39 -4535.42 -4087.90 -2967.72 -2229.11 -1492.28 -1497.73 -1662.33 -1888.71 -2388.40 -3171.82 -3414.24 -3731.33 -4422.57 -4310.80 -3843.09 -3534.40 -3787.97 -4175.64 -4370.80 -4422.92 -4405.47 -4379.37 -4363.06 -4341.85 -4337.42 -4322.50 -4318.60 -4312.30 -4299.46 -4292.43 -4286.37 -4282.98 -4280.77 -4278.67
-5719.74 -5719.62 -5720.50 -5648.61 -5611.12 -5601.08 -5601.51 -5565.65 -5580.24 -5554.83 -5544.29 -5510.52 -5517.17 -5553.72 -5565.17 -5636.70 -5642.69 -5719.01 -5626.90 -5604.16 -5507.02 -5087.10 -4037.51 -3088.60 -2267.07 -2178.76 -2236.20 -2210.73 -2132.85 -2235.74 -2349.59 -2337.98 -1874.41 -1191.70 -563.08 -349.58 -129.15 -82.40 -170.56 -225.36 -115.97 -184.19 -821.07 -1016.30 -948.61 -1713.00 -2239.06 -2734.59 -2927.86 -3005.87 -3210.35 -3301.63 -3558.98 -3760.19 -4267.09 -4864.37 -5111.81 -5200.26 -5213.84 -5253.73 -5129.98 -4794.09 -5012.19 -4991.06 -4739.97 -4397.18 -4349.06 -3564.88 -3471.36 -2661.42 -2704.16 -2476.40 -1274.47 -341.64 -135.64 -5.06 46.75 68.68 78.89 81.66 96.24 125.96 164.92 207.16 237.46 272.25 297.94 351.03 407.95 476.36 574.73 671.17 902.51 1206.64 1509.16 1393.69 1051.35 686.94 277.02 7.51 -59.46 -340.24 -2833.04 -5174.70 -4802.16 -4969.99 -4725.85 -4850.68 -4925.79 -4307.26 -3420.29 -2704.91 -1642.40 -1237.83 -1091.23 -1060.49 -1980.75 -2288.73 -3239.55 -4150.31 -4103.76 -3722.69 -3487.22 -3675.50 -3932.43 -4288.18 -4389.42 -4391.76 -4365.11 -4346.11 -4331.05 -4315.86 -4304.67 -4304.36 -4295.69 -4281.69 -4277.13 -4275.00 -4267.08 -4260.17 -4260.22
-5766.17 -5766.08 -5768.29 -5745.07 -5752.30 -5749.56 -5733.98 -5722.98 -5732.88 -5718.24 -5691.02 -5713.89 -5690.57 -5731.34 -5756.62 -5739.78 -5736.03 -5774.91 -5774.14 -5749.20 -5617.08 -5326.35 -4201.04 -3431.33 -2548.57 -2558.04 -2645.80 -2588.60 -2275.37 -2185.59 -2295.13 -2047.87 -1652.14 -536.69 -108.31 -40.63 -29.96 -30.86 -32.00 -67.39 -54.01 -46.06 -79.50 -211.23 -352.45 -733.78 -1261.96 -1591.18 -1529.93 -2026.24 -2257.83 -1532.18 -1417.66 -3424.21 -3514.22 -3881.94 -4020.47 -4187.43 -4079.27 -4297.69 -3938.69 -4224.44 -4001.31 -4160.43 -3765.48 -3201.44 -2705.76 -2591.97 -2370.22 -2302.55 -1828.98 -842.19 -322.15 -232.09 29.95 47.51 66.67 93.57 96.82 114.01 134.87 151.63 178.71 217.62 255.90 278.86 327.72 362.76 375.68 405.84 458.22 505.70 656.90 928.17 1036.44 1325.36 1272.61 807.69 289.95 117.98 10.58 -61.56 -525.33 -2108.43 -4280.88 -4842.05 -4966.15 -5012.23 -5164.04 -5193.83 -4559.66 -3631.52 -2874.70 -1894.53 -1335.24 -1154.28 -1271.26 -1500.34 -2225.91 -3201.47 -3712.36 -3722.17 -3591.91 -3855.98 -4028.58 -4229.81 -4346.11 -4360.42 -4349.55 -4331.31 -4308.93 -4301.63 -4289.39 -4281.03 -4273.30 -4260.92 -4256.14 -4246.62 -4243.61 -4241.42 -4241.47
-5783.47 -5782.35 -5784.37 -5784.28 -5784.68 -5781.20 -5782.17 -5792.70 -5778.35 -5777.70 -5773.45 -5782.47 -5795.28 -5798.83 -5807.67 -5822.52 -5827.85 -5836.24 -5842.32 -5809.68 -5713.16 -5555.89 -4826.42 -3887.12 -3817.27 -3423.91 -3574.03 -3616.08 -2976.52 -2783.28 -2659.72 -1565.41 -944.64 -110.22 -64.08 -12.98 9.04 11.00 17.56 -1.10 22.27 14.38 10.91 8.84 -10.18 -94.26 -278.79 -632.76 -626.43 -539.29 -485.62 -613.53 -752.25 -398.87 -2391.98 -2599.91 -2834.74 -2696.53 -2770.46 -2626.70 -2774.55 -2970.58 -2806.03 -3060.17 -2814.69 -2456.57 -2460.36 -2224.84 -2190.42 -2102.94 -1365.46 -131.14 -7.25 34.58 47.72 74.63 112.70 115.02 119.03 150.89 163.93 170.99 206.46 240.85 267.70 281.23 312.89 356.70 378.66 408.92 440.46 487.33 514.22 571.80 688.94 1248.33 1388.09 887.93 449.98 116.81 73.39 28.54 -320.53 -836.70 -2507.95 -4437.08 -5305.51 -5057.63 -5024.96 -5229.92 -5208.01 -5085.37 -3876.96 -3439.19 -2543.44 -1579.80 -1390.27 -1259.80 -1315.44 -2201.47 -3095.42 -3616.69 -3637.57 -3858.78 -4074.55 -4173.46 -4316.24 -4331.61 -4319.43 -4304.59 -4299.24 -4286.87 -4272.63 -4262.70 -4250.63 -4238.97 -4237.77 -4227.17 -4220.66 -4222.55 -4222.60
-5797.69 -5796.47 -5798.13 -5801.64 -5798.86 -5801.84 -5806.38 -5807.56 -5808.80 -5800.61 -5805.89 -5814.95 -5815.12 -5824.84 -5831.74 -5834.20 -5843.32 -5848.81 -5856.44 -5852.07 -5821.96 -5714.23 -5350.90 -5035.92 -4909.25 -5100.46 -4919.62 -4425.44 -3644.32 -3177.17 -2203.82 -871.23 -369.01 -73.32 -35.48 -9.60 15.54 41.40 42.95 28.27 36.08 34.30 30.11 26.62 30.43 35.42 23.81 23.78 18.74 -9.95 -44.13 -53.37 -245.42 -365.09 -1154.13 -1406.13 -1512.60 -1683.03 -1689.71 -2218.13 -2247.51 -2092.88 -2378.14 -2437.84 -2446.38 -2290.10 -2276.87 -2164.09 -1369.14 -1038.05 -673.80 28.69 40.11 59.18 81.57 113.38 147.60 162.93 156.05 170.81 169.22 196.52 209.53 238.67 264.03 280.23 317.63 350.93 386.01 413.90 436.06 460.76 504.36 520.56 609.52 791.26 1109.68 1071.09 755.71 336.25 74.80 61.94 24.98 -4.64 -1087.57 -4111.11 -5377.58 -5196.92 -5024.61 -5075.18 -5164.02 -5267.88 -5172.33 -4784.86 -3735.77 -3092.47 -2614.94 -1622.44 -1516.21 -1800.41 -2299.95 -2639.10 -3368.93 -3790.22 -4037.25 -4208.38 -4273.70 -4295.18 -4290.79 -4285.27 -4267.19 -4259.51 -4249.38 -4237.13 -4233.25 -4224.28 -4213.64 -4210.23 -4206.34 -4204.34 -4201.81
-5813.42 -5812.05 -5813.49 -5813.94 -5817.58 -5817.81 -5817.58 -5814.24 -5823.32 -5825.47 -5828.18 -5830.96 -5838.51 -5840.26 -5843.60 -5849.79 -5852.62 -5862.27 -5862.67 -5866.10 -5857.12 -5839.81 -5783.97 -5687.95 -5675.62 -5671.84 -5495.22 -5400.70 -4947.13 -3739.88 -2157.95 -454.46 -66.98 -40.52 -10.46 1.07 29.98 41.53 66.54 56.85 59.13 57.67 58.50 44.79 45.32 44.33 40.30 35.76 24.67 20.23 18.14 15.38 -26.77 -96.51 -111.06 -190.14 -297.08 -585.91 -935.35 -1562.41 -1449.89 -1479.47 -1844.73 -2028.18 -2342.93 -2374.56 -2316.69 -1508.94 -153.44 8.17 21.58 39.51 55.78 78.89 92.04 135.79 232.18 199.48 195.80 190.47 199.84 232.08 236.18 252.37 273.66 290.93 324.08 355.41 379.30 405.12 433.80 444.28 450.28 457.50 500.84 643.19 894.14 1159.20 1030.76 760.78 127.92 111.47 91.32 20.84 -13.43 -1760.99 -4966.20 -5291.92 -5333.53 -4992.48 -4996.71 -5111.91 -5267.40 -5309.77 -5026.94 -4419.69 -3927.29 -3238.37 -2324.30 -1587.51 -1452.69 -1687.30 -2948.88 -3804.11 -4263.92 -4331.70 -4258.54 -4268.79 -4267.01 -4257.14 -4240.97 -4237.44 -4228.32 -4216.26 -4207.64 -4200.33 -4193.90 -4190.47 -4182.54 -4181.40 -4178.84
-5829.57 -5829.50 -5833.78 -5832.84 -5829.48 -5835.48 -5835.46 -5833.53 -5835.90 -5840.09 -5836.51 -5845.12 -5847.77 -5850.03 -5859.11 -5865.81 -5864.58 -5870.81 -5870.98 -5873.58 -5871.31 -5859.72 -5837.36 -5831.92 -5809.90 -5774.41 -5766.57 -5904.68 -6094.93 -4628.95 -1315.37 -104.55 -46.14 -21.20 0.22 11.18 37.34 68.21 101.01 72.86 68.93 72.62 72.42 68.89 55.34 46.30 60.80 60.85 52.72 38.67 30.67 22.29 13.95 -13.58 -57.55 -98.53 -143.91 -167.39 -178.34 -388.12 -512.22 -492.76 -906.01 -1323.33 -1650.57 -1686.16 -1685.78 -815.67 9.98 23.34 38.04 46.19 76.22 87.96 116.40 184.14 292.53 264.27 217.87 236.02 226.17 236.20 246.95 263.55 281.05 298.20 326.64 347.14 355.30 396.99 426.80 443.96 447.11 448.90 450.67 473.97 715.14 995.59 1083.34 586.38 232.89 190.58 141.94 60.24 48.19 15.54 -1297.61 -4334.20 -5500.14 -5341.83 -5147.83 -5123.76 -5249.60 -5438.63 -5543.34 -5394.73 -5259.71 -4780.85 -3646.86 -2355.33 -1632.16 -1425.63 -2674.43 -3955.30 -4476.41 -4397.62 -4327.68 -4256.73 -4215.05 -4209.08 -4202.34 -4199.59 -4197.57 -4188.82 -4185.84 -4174.88 -4165.00 -4161.50 -4153.09 -4153.92 -4153.97
-5845.33 -5844.10 -5845.42 -5847.41 -5852.61 -5846.89 -5853.73 -5849.77 -5849.17 -5851.22 -5857.23 -5861.16 -5866.51 -5868.23 -5871.72 -5873.84 -5881.10 -5879.81 -5880.63 -5882.04 -5881.82 -5876.81 -5865.73 -5851.03 -5830.06 -5822.04 -5862.40 -6095.05 -6676.79 -4716.26 -1095.05 -111.70 -42.72 -1.47 7.21 17.69 39.70 72.06 106.77 128.41 87.60 79.09 75.29 93.54 112.28 100.96 110.01 93.29 93.06 69.88 49.84 40.98 24.34 16.10 5.02 -39.14 -60.69 -111.62 -124.55 -160.28 -175.53 -167.07 -162.50 -597.49 -397.32 -804.30 -457.18 4.15 16.11 32.91 48.36 62.74 75.32 112.54 170.84 227.26 349.88 326.34 266.64 267.96 266.90 243.19 276.09 278.56 288.52 299.96 322.85 346.04 352.47 380.90 420.02 432.96 442.18 448.09 447.40 448.99 541.34 682.25 925.15 880.13 1023.66 618.30 249.72 105.01 81.25 12.00 -18.08 -165.54 -1618.23 -5446.10 -5145.70 -4963.83 -5102.80 -5346.06 -5541.70 -5598.77 -5543.51 -5270.53 -4522.04 -3334.14 -1721.29 -1365.75 -2183.94 -3566.49 -4119.99 -4531.77 -4375.45 -4275.67 -4211.39 -4181.88 -4181.00 -4171.26 -4165.14 -4158.67 -4154.53 -4147.40 -4144.28 -4137.53 -4135.24 -4131.00 -4127.88
-5859.28 -5859.21 -5863.23 -5862.57 -5861.62 -5863.63 -5863.57 -5865.23 -5869.08 -5873.20 -5870.87 -5874.67 -5880.28 -5883.67 -5885.03 -5889.32 -5888.86 -5892.15 -5889.95 -5891.24 -5888.99 -5887.21 -5875.49 -5862.35 -5832.13 -5828.62 -6048.41 -6367.40 -5642.79 -3667.32 -522.06 -119.46 -37.34 6.79 18.98 36.51 53.07 73.57 106.22 121.51 114.33 123.73 130.68 139.32 194.24 144.74 176.07 111.83 111.25 98.92 69.92 55.27 42.13 29.13 21.62 5.96 -12.36 -15.69 -60.90 -128.06 -119.91 -113.44 -147.92 -123.05 -48.63 -0.16 4.15 23.29 32.05 47.92 56.54 77.34 98.94 113.93 219.77 305.89 399.72 388.04 312.33 287.61 279.67 268.51 289.28 293.77 298.37 302.39 321.38 332.57 343.99 352.09 369.36 397.44 400.04 439.37 445.61 444.24 472.75 574.65 752.60 1102.66 1181.80 721.57 288.77 160.27 90.62 60.95 20.26 -258.47 -2323.84 -5105.37 -4969.43 -4796.37 -5019.81 -5256.16 -5506.52 -5612.31 -5631.25 -5461.31 -4927.59 -3102.27 -1816.79 -1228.77 -1382.05 -1983.41 -3406.48 -4029.88 -4457.76 -4315.06 -4226.87 -4170.82 -4147.31 -4144.30 -4133.57 -4139.39 -4127.24 -4130.71 -4114.99 -4114.27 -4103.10 -4101.83 -4101.88
-5871.62 -5871.55 -5875.17 -5877.68 -5880.27 -5880.43 -5884.05 -5884.11 -5887.45 -5885.05 -5890.77 -5894.09 -5895.28 -5899.79 -5901.47 -5902.75 -5902.99 -5903.49 -5906.01 -5904.58 -5902.43 -5895.70 -5885.00 -5860.57 -5843.04 -5865.19 -6181.17 -6570.77 -5874.43 -3605.00 -844.88 -99.66 1.72 17.11 31.17 37.92 57.47 100.15 124.09 147.60 174.39 193.21 148.64 167.27 284.72 378.14 306.60 186.17 144.20 109.56 79.45 78.61 65.88 41.53 24.28 18.29 4.73 -8.28 -15.82 -31.84 -24.40 -37.73 -25.68 -4.03 3.61 27.44 32.45 38.20 48.85 58.30 73.86 87.46 115.84 134.90 211.54 280.29 420.47 402.41 323.55 289.04 287.72 288.43 291.62 295.77 299.69 301.73 315.67 319.91 327.21 342.27 356.62 357.73 368.29 426.80 433.00 438.57 474.08 508.03 655.39 932.97 1221.29 1092.81 713.73 283.83 112.57 96.98 64.90 -939.59 -3404.20 -4868.25 -4942.54 -4792.75 -4934.23 -5152.40 -5447.80 -5581.24 -5635.19 -5575.39 -5011.03 -3381.04 -1901.40 -850.03 -834.94 -1025.25 -2234.66 -3526.47 -4472.92 -4357.94 -4239.06 -4176.79 -4139.77 -4125.63 -4103.89 -4102.42 -4103.62 -4099.92 -4102.35 -4088.26 -4081.41 -4076.73 -4076.78
-5882.95 -5882.87 -5888.03 -5889.83 -5889.16 -5889.44 -5893.90 -5892.69 -5896.70 -5901.09 -5903.57 -5905.31 -5910.82 -5914.33 -5916.91 -5918.84 -5920.84 -5925.95 -5920.64 -5918.47 -5914.48 -5905.50 -5894.11 -5872.73 -5852.14 -5912.10 -6178.61 -6222.19 -5609.90 -531.86 -149.58 -47.79 -1.39 27.52 33.48 38.05 57.66 107.01 132.90 160.83 207.54 232.01 204.98 225.20 342.48 441.89 457.50 256.74 215.23 133.11 97.79 81.11 76.95 72.44 51.79 33.82 12.40 -3.68 -7.00 -5.70 -6.75 -4.65 1.13 6.88 21.05 32.67 43.50 52.65 60.23 65.92 72.74 91.69 105.32 146.19 187.31 230.02 303.06 344.25 307.63 290.00 288.06 288.03 294.46 298.84 301.93 303.83 306.22 309.26 317.58 320.77 345.24 354.56 365.67 392.75 409.80 444.56 464.09 478.67 599.33 893.54 1228.51 1149.82 906.13 448.63 157.20 105.54 82.70 29.39 -1973.28 -4604.57 -5039.45 -4855.88 -4890.08 -5145.88 -5311.12 -5542.68 -5628.17 -5566.00 -5019.48 -3871.27 -2245.93 -776.97 -715.90 -840.20 -1626.82 -2276.46 -3622.25 -4150.73 -4151.16 -4164.73 -4131.67 -4107.51 -4089.20 -4084.11 -4080.08 -4073.01 -4071.29 -4066.57 -4056.26 -4054.14 -4054.19
-5891.60 -5891.55 -5895.53 -5898.76 -5901.62 -5902.71 -5903.57 -5909.15 -5910.63 -5910.69 -5914.88 -5919.95 -5923.15 -5923.46 -5927.52 -5929.81 -5928.11 -5932.08 -5933.52 -5934.98 -5930.70 -5921.96 -5914.37 -5886.90 -5878.84 -6050.32 -6235.70 -4598.79 -1875.88 -246.62 -102.78 -52.40 -9.47 16.13 33.09 46.63 77.13 123.73 137.15 172.00 187.00 256.84 280.27 245.03 365.83 583.12 540.40 436.49 257.73 189.24 148.25 105.02 82.75 77.80 67.44 40.71 26.85 14.57 7.68 0.16 3.46 6.82 15.77 21.69 38.96 49.47 50.24 58.31 73.13 74.10 80.72 94.04 107.40 146.59 164.68 209.81 242.33 281.20 277.56 280.75 283.70 285.84 293.79 298.01 301.52 304.91 306.43 308.65 310.82 314.91 330.51 337.18 349.03 371.04 389.13 428.05 456.15 469.02 483.57 654.21 1123.56 1206.64 1003.57 482.12 282.10 186.34 106.08 -13.02 -828.43 -4360.92 -5184.91 -4844.91 -4904.14 -5123.32 -5311.80 -5538.32 -5609.03 -5575.11 -5320.81 -4023.56 -1980.25 -730.53 -568.56 -739.60 -884.23 -1722.86 -2294.67 -3352.44 -3805.66 -4052.82 -4084.20 -4101.41 -4081.54 -4059.15 -4054.81 -4051.29 -4046.75 -4042.28 -4041.67 -4035.15 -4032.34
-5897.57 -5897.50 -5903.46 -5904.14 -5909.99 -5912.08 -5918.83 -5918.82 -5922.29 -5925.37 -5929.46 -5931.19 -5937.87 -5942.46 -5943.69 -5945.33 -5949.67 -5947.75 -5950.17 -5947.73 -5948.19 -5941.36 -5923.79 -5897.00 -5906.12 -6033.62 -6099.94 -4022.09 -1275.38 -303.02 -131.73 -36.43 0.16 18.18 28.65 45.32 75.33 129.89 163.10 189.22 232.60 253.77 308.28 338.72 373.79 645.67 632.05 426.59 295.16 240.57 162.59 136.74 106.01 91.82 72.00 50.68 37.19 29.22 23.10 17.53 21.44 21.29 32.89 40.74 43.39 55.40 64.64 83.08 84.27 86.96 92.44 107.56 122.86 146.23 171.97 196.83 221.29 246.02 254.33 267.17 273.28 279.43 288.49 295.96 301.14 304.65 306.31 308.82 314.21 316.43 323.31 326.58 344.82 371.07 385.32 410.73 441.49 462.97 487.75 558.32 999.38 1283.30 1301.87 751.36 352.82 190.59 115.13 43.66 -1100.53 -4825.51 -5454.02 -4939.14 -4926.50 -5146.67 -5318.08 -5494.82 -5588.88 -5548.31 -5175.60 -4697.70 -1928.48 -791.75 -494.89 -583.58 -688.63 -1521.06 -2144.79 -2988.72 -3637.38 -3702.97 -4006.46 -4047.91 -4057.61 -4050.83 -4041.93 -4033.52 -4030.13 -4026.63 -4017.19 -4012.17 -4012.22
-5901.41 -5901.34 -5907.68 -5911.61 -5916.64 -5920.58 -5925.36 -5926.11 -5929.42 -5938.51 -5941.37 -5944.07 -5947.39 -5950.94 -5957.23 -5960.64 -5960.10 -5966.82 -5969.64 -5967.66 -5966.56 -5952.00 -5864.30 -5862.66 -5742.16 -5132.11 -4438.32 -2838.87 -1071.45 -180.38 -121.65 -36.31 -5.66 10.66 32.34 43.04 82.65 108.92 156.08 195.52 242.05 282.15 287.27 342.08 391.30 507.79 523.13 491.87 307.91 261.88 206.60 149.82 133.95 104.73 76.77 63.25 47.03 38.69 46.59 37.77 37.37 36.87 56.68 56.19 56.30 65.18 78.94 86.99 90.64 95.35 96.28 118.55 125.69 151.18 165.26 183.12 210.22 231.12 245.20 252.76 266.98 276.62 286.75 290.78 298.39 303.93 306.03 310.58 315.34 319.93 322.09 326.26 332.54 362.55 382.55 394.24 419.68 448.89 501.16 527.63 812.86 1254.51 1367.18 779.26 399.35 266.69 80.99 17.34 -519.47 -3440.46 -5322.30 -5007.36 -4909.60 -5042.27 -5321.44 -5448.20 -5551.75 -5519.66 -5333.08 -3792.66 -2127.71 -783.32 -433.89 -459.30 -742.82 -1140.68 -2164.36 -2560.74 -2867.12 -3463.27 -3965.95 -3988.28 -4041.18 -4032.06 -4020.33 -4015.40 -4011.01 -4005.22 -4000.43 -3991.14 -3991.19
-5903.54 -5903.47 -5911.13 -5915.52 -5922.81 -5925.99 -5930.12 -5934.91 -5940.18 -5943.78 -5947.49 -5953.17 -5959.43 -5961.30 -5969.21 -5972.26 -5979.30 -5985.95 -5978.81 -5968.82 -5951.89 -5880.38 -5725.80 -5502.27 -4976.42 -4649.59 -1633.28 -787.27 -185.90 -122.30 -79.86 -16.48 -0.53 21.68 37.73 50.85 87.08 111.46 152.55 210.52 270.66 306.34 318.37 358.25 379.19 456.37 545.72 489.06 418.91 309.34 234.86 168.80 140.93 118.96 92.57 79.40 62.51 61.66 58.22 55.07 62.93 63.56 62.85 72.07 79.26 82.63 94.64 94.82 97.35 106.65 109.00 118.47 128.14 141.70 162.30 186.95 209.77 217.53 231.44 244.24 251.63 257.13 275.98 286.32 295.08 301.62 307.82 310.17 318.34 326.89 323.90 326.63 333.22 355.67 374.74 389.76 405.51 431.08 475.97 508.00 656.60 1093.38 1278.57 946.37 450.99 247.96 99.83 43.98 -18.63 -2452.93 -4026.82 -4977.89 -4897.43 -4923.12 -5327.28 -5485.36 -5536.12 -5480.31 -5240.64 -3821.62 -2193.39 -640.57 -360.89 -393.72 -602.12 -1157.74 -1746.58 -2130.17 -2494.29 -3136.38 -3821.87 -3902.84 -3992.70 -4012.05 -4006.99 -3998.13 -3991.88 -3987.47 -3980.84 -3975.70 -3975.76
-5904.71 -5905.50 -5910.50 -5921.23 -5925.01 -5929.05 -5935.89 -5940.45 -5944.33 -5951.79 -5958.81 -5965.92 -5970.11 -5976.17 -5983.27 -5983.38 -5986.31 -5987.66 -5984.63 -5911.86 -5808.33 -5545.57 -4883.81 -4406.67 -4103.81 -3025.10 -1455.55 -268.61 -219.61 -113.79 -54.84 -10.98 11.25 28.77 39.81 84.23 105.24 126.42 153.56 189.05 257.07 331.99 389.43 398.84 445.81 510.18 567.91 531.32 474.35 314.70 217.02 190.32 152.46 134.19 106.39 97.56 81.36 73.73 75.23 70.61 70.70 81.45 91.45 97.31 101.43 97.88 105.35 109.82 110.68 117.02 117.48 120.11 126.98 140.52 152.81 177.31 188.72 201.41 217.99 229.24 244.70 248.74 258.45 282.56 288.25 295.26 309.10 318.42 329.49 334.39 330.26 328.36 327.99 337.40 366.02 388.40 402.57 431.98 470.76 497.85 551.34 1089.29 1253.63 911.45 534.96 218.03 106.32 26.69 -36.73 -487.41 -3293.60 -4731.97 -4737.05 -4832.57 -5099.64 -5525.17 -5527.53 -5485.60 -5186.97 -3814.31 -2048.83 -558.98 -353.22 -327.06 -552.75 -923.60 -1195.23 -1764.35 -2756.50 -3152.11 -3294.37 -3626.41 -3910.29 -3994.29 -3998.78 -3992.28 -3982.24 -3976.23 -3970.93 -3963.03 -3963.09
-5905.92 -5905.85 -5913.53 -5921.28 -5925.91 -5935.95 -5938.42 -5945.87 -5953.40 -5961.43 -5965.56 -5972.03 -5979.30 -5985.04 -5990.91 -5981.35 -5977.37 -5962.18 -5796.09 -5737.16 -5277.29 -4779.93 -4141.85 -3143.99 -2938.42 -2322.17 -1329.94 -520.61 -207.98 -54.95 -22.51 3.27 18.93 37.55 75.65 96.52 111.65 133.77 178.14 227.47 320.39 372.73 444.91 445.70 473.22 552.71 509.82 472.01 299.34 286.63 223.91 198.66 157.34 138.81 126.21 114.85 98.89 90.84 87.72 94.79 119.32 115.63 108.24 115.62 116.05 114.84 115.74 119.58 121.24 123.80 125.62 124.85 129.29 137.54 152.85 162.29 180.61 196.91 206.73 222.26 225.41 247.83 261.27 274.86 284.38 293.33 306.32 324.65 334.35 340.40 342.82 336.89 328.20 328.62 342.45 395.56 400.00 411.11 435.38 478.69 527.04 822.31 1071.47 796.31 429.29 170.86 101.23 68.32 -19.07 -1238.14 -3607.83 -4856.76 -4742.58 -4835.47 -5074.90 -5421.98 -5505.59 -5440.66 -5091.44 -3881.33 -1537.44 -749.99 -300.95 -278.38 -321.16 -755.24 -1275.87 -1578.19 -2203.15 -2589.12 -3067.36 -3495.37 -3884.94 -3989.75 -3996.30 -3988.11 -3978.50 -3973.65 -3965.46 -3957.28 -3957.35
-5908.05 -5907.98 -5915.57 -5922.33 -5929.34 -5938.75 -5944.42 -5951.71 -5957.94 -5966.74 -5972.73 -5979.80 -5987.74 -5987.11 -5972.10 -5944.73 -5819.25 -5686.99 -5321.54 -4708.99 -4064.40 -3815.02 -2979.06 -2483.11 -2456.59 -1237.92 -589.33 -280.39 -92.64 -26.94 -1.23 4.80 26.39 45.76 83.48 97.45 117.80 150.50 194.53 222.64 340.08 364.34 420.67 461.65 511.18 515.15 468.14 407.11 323.86 283.98 250.67 221.91 169.91 143.05 143.52 135.99 107.47 102.25 117.01 115.95 134.21 141.57 129.84 118.18 127.82 127.80 129.58 136.19 133.47 132.51 130.76 130.20 129.44 134.46 151.68 157.29 169.45 181.29 196.19 206.15 219.33 233.15 244.80 265.96 274.71 292.37 304.69 326.30 339.56 348.14 348.60 340.10 332.62 329.44 340.61 382.16 400.54 402.36 407.73 457.62 486.09 666.46 967.47 826.33 389.98 163.85 94.74 39.97 -37.13 -1824.29 -4952.83 -4972.85 -4848.44 -4944.51 -5129.48 -5390.15 -5497.36 -5426.18 -4905.18 -3862.83 -1431.21 -557.95 -234.98 -234.17 -297.88 -539.41 -932.93 -1037.39 -1642.85 -2529.49 -3191.13 -3301.20 -3835.51 -3995.25 -3995.14 -3983.96 -3978.21 -3969.95 -3964.66 -3957.41 -3957.48
-5912.04 -5912.55 -5918.71 -5927.95 -5936.69 -5944.62 -5950.99 -5960.29 -5964.66 -5973.52 -5980.21 -5979.17 -5967.56 -5938.89 -5900.18 -5650.96 -5349.79 -4679.29 -4157.69 -3687.93 -3527.04 -2515.83 -2510.89 -2336.72 -1952.25 -657.14 -313.78 -234.52 -133.79 -18.89 8.60 18.78 31.42 59.32 83.34 115.39 139.54 161.61 205.25 241.81 303.57 327.51 387.07 457.29 516.12 458.01 427.07 380.39 327.24 284.11 240.87 225.25 200.36 166.07 155.95 146.42 136.31 139.61 147.37 152.87 161.79 163.28 157.89 139.79 143.44 140.74 145.19 141.66 139.27 139.34 135.15 133.13 134.04 139.81 145.59 154.29 161.67 174.31 187.75 198.67 214.76 226.99 233.61 256.90 274.29 296.46 311.21 335.52 347.51 350.90 350.81 345.66 336.11 329.95 330.09 370.45 389.65 394.89 403.74 426.90 469.10 446.93 638.52 781.41 457.93 159.73 87.50 15.02 -31.65 -1221.44 -4589.65 -5214.97 -4959.10 -5004.95 -5144.45 -5360.89 -5472.55 -5404.20 -4938.22 -3278.38 -1414.96 -475.74 -257.89 -244.74 -326.63 -455.30 -616.94 -991.01 -1544.99 -2365.14 -2809.01 -3305.45 -3851.24 -3971.82 -3992.01 -3987.22 -3979.47 -3974.21 -3968.25 -3962.76 -3962.84
-5919.75 -5919.67 -5929.15 -5935.95 -5941.33 -5951.88 -5961.19 -5968.98 -5980.50 -5982.74 -5973.33 -5940.25 -5890.56 -5685.01 -5268.43 -4816.32 -4154.87 -3774.24 -3205.65 -2674.56 -2237.11 -2047.54 -2124.20 -1963.75 -1588.56 -809.75 -280.37 -198.59 -128.65 -25.26 16.18 30.38 44.04 77.57 97.06 118.42 170.86 195.12 233.16 264.45 317.92 338.44 390.93 446.67 470.00 435.41 424.17 363.47 304.37 280.33 249.64 232.36 207.25 185.81 171.52 159.80 160.48 167.26 182.49 179.86 184.26 176.39 173.11 167.25 161.45 156.72 151.91 149.33 146.18 142.01 139.32 137.77 136.13 138.26 144.07 152.04 161.18 169.86 182.70 186.33 215.97 223.52 232.73 258.00 271.68 295.21 314.71 330.44 347.67 352.67 353.27 347.68 341.17 336.82 332.60 352.25 364.00 378.28 401.45 401.65 393.50 353.06 398.92 448.96 358.07 127.56 64.18 31.68 -15.13 -1234.99 -3363.98 -5425.65 -5091.94 -5021.45 -5184.97 -5324.90 -5405.13 -5214.75 -4856.90 -2902.49 -1741.80 -414.28 -257.69 -266.94 -370.53 -486.90 -669.89 -1057.45 -1421.88 -2073.48 -2856.10 -3256.63 -3887.37 -3965.90 -3992.77 -3990.34 -3985.52 -3981.80 -3976.80 -3972.31 -3972.58
-5933.77 -5933.68 -5942.45 -5949.30 -5954.61 -5963.92 -5975.71 -5984.20 -5989.99 -5980.73 -5943.20 -5812.41 -5455.64 -5286.51 -4778.59 -4099.20 -3603.39 -2983.35 -2524.67 -2313.37 -2026.93 -1919.41 -2013.73 -1919.00 -1273.37 -342.00 -258.38 -200.32 -64.69 -4.24 22.80 38.48 67.20 88.51 99.77 130.36 190.34 257.23 275.81 285.27 321.52 368.38 432.44 437.61 427.80 400.50 363.39 337.79 295.71 271.87 249.17 228.61 219.61 197.66 194.40 193.43 184.60 188.90 203.68 208.91 213.36 196.65 192.79 185.00 178.59 169.56 167.19 159.37 155.49 146.94 142.43 139.15 137.03 139.37 142.35 148.66 160.10 167.46 178.72 188.68 206.74 219.57 233.80 258.27 270.90 293.35 304.74 331.54 348.19 353.32 354.42 350.29 344.63 342.55 336.11 337.01 348.72 360.75 377.58 382.86 362.21 334.10 288.43 266.78 239.28 125.28 90.33 38.04 1.04 -229.68 -3719.11 -5050.64 -5061.18 -5067.02 -5180.48 -5250.18 -5320.29 -5011.63 -4340.11 -2612.11 -813.68 -360.01 -243.31 -269.68 -346.84 -498.51 -696.36 -987.51 -1416.14 -1796.85 -2565.82 -3283.88 -3687.28 -3955.31 -3995.44 -3994.59 -3993.28 -3991.36 -3991.59 -3988.20 -3988.29
-5956.48 -5956.39 -5962.42 -5965.57 -5977.55 -5985.40 -5991.95 -5997.42 -5997.40 -6003.54 -5924.52 -5654.16 -5095.80 -4416.54 -3663.47 -3455.76 -3149.81 -2901.78 -2463.31 -2220.38 -1996.84 -1884.54 -2020.40 -1833.88 -916.34 -262.01 -218.67 -182.97 -62.36 -3.03 23.91 46.44 68.16 104.22 141.29 150.17 200.65 277.87 325.41 335.58 350.92 412.32 463.31 422.53 389.95 383.54 344.93 315.24 295.82 269.90 253.27 240.94 236.21 218.67 202.95 206.77 200.83 218.82 241.61 232.34 233.92 209.06 204.70 195.00 188.84 177.73 175.36 165.50 159.02 153.69 142.64 140.89 135.82 138.39 141.20 144.52 151.96 161.30 172.08 182.88 202.85 217.33 237.51 251.38 280.85 294.18 307.70 329.94 345.84 352.43 352.61 352.53 350.47 351.71 347.17 354.05 359.30 366.97 367.76 366.38 356.30 328.97 319.22 262.94 187.50 149.57 94.28 43.45 -6.65 -116.77 -2089.24 -4532.23 -5177.78 -5184.58 -5160.40 -5196.38 -5200.50 -4777.08 -3650.54 -2025.05 -677.05 -267.18 -223.33 -268.04 -331.86 -500.97 -702.91 -958.45 -1278.45 -1806.47 -2610.85 -3065.06 -3666.81 -3933.69 -4006.25 -4006.44 -4007.89 -4006.63 -4006.41 -4005.09 -4005.18
-5984.69 -5984.31 -5987.90 -5991.03 -5998.01 -6002.51 -6037.74 -6045.93 -6047.00 -6056.60 -5869.42 -5586.94 -4753.57 -4100.19 -3609.92 -3400.88 -3272.70 -3015.38 -2604.29 -2203.71 -2034.37 -1997.34 -2093.01 -1437.57 -721.76 -235.46 -196.94 -151.30 -78.78 3.58 18.98 38.74 90.82 128.88 179.96 191.98 221.35 248.17 324.23 358.56 414.50 444.49 447.49 384.06 364.85 332.07 311.08 305.39 289.41 259.85 253.42 247.91 246.02 231.17 218.82 223.99 252.37 270.09 275.64 252.10 250.42 237.21 215.85 213.17 208.93 188.90 180.75 172.72 164.18 157.28 145.29 141.40 136.20 136.16 139.01 141.50 145.46 155.53 165.69 178.82 193.58 213.48 241.73 257.71 273.56 290.59 303.80 325.91 336.08 344.06 349.55 353.80 355.74 360.68 361.27 362.73 370.22 369.81 366.94 359.00 347.27 303.84 295.73 256.45 190.04 134.39 88.60 56.29 13.22 -9.71 -2068.24 -4371.07 -4954.95 -5183.21 -5164.97 -5138.97 -4973.49 -4370.37 -2406.10 -962.43 -393.51 -252.76 -214.69 -247.90 -341.38 -553.88 -923.52 -1182.41 -1422.36 -1849.99 -2857.12 -3532.64 -3893.89 -3981.90 -4020.60 -4022.40 -4017.12 -4023.28 -4029.03 -4028.65 -4028.75
-6032.97 -6032.84 -6041.92 -6040.10 -6040.41 -6046.19 -6050.17 -6041.73 -6066.44 -5872.89 -5598.27 -5192.42 -4692.18 -4051.52 -3793.22 -3637.63 -3574.12 -3320.87 -2684.84 -2147.11 -2035.41 -2149.48 -2243.24 -732.08 -355.34 -251.77 -224.63 -159.94 -38.94 4.44 21.21 41.51 84.36 152.87 197.27 233.28 285.53 270.00 288.83 362.88 412.99 412.48 369.86 351.78 342.31 297.96 298.72 286.24 270.56 263.34 254.07 245.84 245.62 243.14 240.36 239.23 295.65 327.68 322.36 297.29 277.83 252.30 235.22 226.32 217.83 204.04 190.60 184.14 172.00 156.00 147.81 141.74 136.55 135.04 135.27 139.82 144.82 153.61 160.38 177.30 188.48 209.41 233.38 251.03 263.62 288.79 303.28 320.56 333.71 341.01 347.89 354.99 361.17 376.04 378.24 379.78 381.99 377.45 370.12 336.34 322.49 287.52 239.52 188.60 153.94 127.46 95.68 52.98 -24.66 -475.14 -2046.49 -4365.47 -5000.56 -5061.39 -5100.92 -5032.82 -4602.56 -3902.87 -1764.49 -558.64 -319.62 -212.38 -230.03 -272.91 -326.64 -600.96 -831.19 -1282.98 -1559.09 -2260.52 -3411.09 -3855.11 -4017.24 -4031.98 -4032.63 -4032.74 -4037.17 -4042.31 -4048.09 -4050.75 -4050.85
-6131.20 -6129.92 -6097.42 -6012.54 -5997.67 -5994.54 -5920.73 -5711.23 -5605.17 -5391.09 -4992.17 -4523.42 -4458.26 -4190.25 -4173.56 -3949.25 -3887.85 -3606.01 -2898.59 -2103.19 -1903.43 -1813.96 -1309.38 -375.45 -316.69 -274.75 -228.57 -141.08 -43.99 -1.18 21.64 42.76 85.52 130.20 186.12 234.99 309.34 338.29 366.94 415.10 415.13 394.33 345.03 319.66 307.82 286.86 275.15 265.68 264.46 249.23 246.38 241.81 242.51 246.26 261.30 285.12 322.15 352.38 376.28 356.67 307.59 278.49 271.43 236.15 229.75 213.17 206.58 189.26 172.13 158.20 148.97 141.78 136.51 133.84 134.09 136.82 141.80 147.19 160.45 174.24 188.83 203.07 218.56 241.95 259.36 280.88 297.15 308.37 329.12 338.45 347.94 358.67 368.80 386.94 392.55 391.01 387.24 378.57 360.00 330.12 310.08 267.18 222.35 148.52 123.48 92.91 68.32 44.92 -50.64 -827.91 -1941.78 -4282.24 -4724.91 -4876.18 -5090.85 -5033.13 -3902.48 -2814.37 -1011.58 -524.00 -256.31 -219.47 -228.15 -256.21 -408.21 -698.41 -1033.05 -1387.94 -1746.88 -2582.58 -3635.05 -4013.02 -4047.86 -4041.08 -4050.24 -4050.09 -4053.11 -4059.70 -4063.62 -4075.26 -4075.37
-5977.88 -5977.99 -5753.97 -5704.73 -5619.95 -5398.31 -5259.11 -5010.81 -4789.63 -4635.22 -4599.23 -4431.77 -4359.04 -4355.35 -4361.14 -4317.08 -4180.30 -3736.50 -2972.89 -2263.01 -1559.92 -1319.08 -899.32 -336.29 -305.39 -258.79 -192.43 -134.57 -51.21 -4.00 20.42 68.82 116.24 168.98 207.28 270.55 355.98 390.17 366.32 375.25 363.68 346.48 324.04 297.51 284.27 261.70 262.29 253.51 247.78 239.18 236.50 235.91 238.04 245.39 250.72 286.90 313.95 347.41 393.42 398.32 369.29 346.94 298.23 269.52 243.58 231.07 208.42 207.73 183.82 169.39 157.71 142.20 137.99 131.95 132.04 136.41 141.92 146.93 157.93 167.38 183.79 200.31 218.41 233.03 260.80 278.43 292.00 304.87 324.20 336.92 344.06 363.64 376.55 389.76 394.54 393.83 386.57 375.62 343.35 297.86 252.51 211.56 171.54 123.19 94.67 73.38 55.23 -33.97 -429.90 -1435.75 -2965.51 -3649.05 -4413.36 -4810.73 -4974.61 -4953.91 -3735.07 -1990.97 -731.87 -401.27 -231.17 -234.71 -260.20 -314.62 -417.32 -613.10 -993.57 -1504.69 -2178.47 -3274.34 -3582.76 -3975.62 -4061.22 -4066.97 -4062.90 -4067.63 -4073.82 -4077.44 -4096.50 -4096.01 -4096.12
-5091.28 -5092.48 -5110.20 -4943.78 -4968.43 -4642.25 -4605.05 -4490.86 -4476.30 -4434.86 -4414.04 -4402.74 -4408.87 -4413.10 -4408.00 -4412.33 -4336.28 -4033.58 -3154.97 -2467.80 -1466.67 -1095.57 -588.78 -326.40 -303.66 -247.67 -183.29 -115.07 -53.00 -7.60 15.86 47.32 79.10 125.85 188.11 279.78 364.22 325.63 309.47 320.71 306.04 299.81 284.29 274.56 257.12 249.04 240.61 237.51 237.18 229.96 231.52 230.72 230.92 241.57 249.25 271.15 285.93 320.67 355.44 415.86 436.07 345.57 294.73 281.02 265.08 247.76 219.03 211.18 191.73 177.63 163.16 144.53 135.98 129.58 129.22 133.32 136.19 143.77 150.26 165.96 180.63 201.88 223.60 235.69 251.53 275.71 287.03 303.25 311.39 331.58 339.72 358.78 380.83 388.32 391.30 386.68 378.54 351.36 314.62 301.93 242.51 204.15 164.57 110.20 86.36 50.76 22.52 -358.69 -1342.21 -2337.22 -3286.43 -3704.97 -4735.40 -5215.25 -5224.18 -4510.15 -3317.73 -1689.23 -654.38 -267.49 -230.71 -249.54 -278.72 -334.94 -388.76 -595.39 -1068.77 -1817.34 -2486.77 -3353.92 -3876.54 -3912.86 -4080.74 -4085.09 -4084.88 -4087.51 -4091.96 -4099.65 -4106.95 -4116.04 -4116.16
-4424.48 -4425.59 -4507.74 -4574.91 -4500.54 -4455.28 -4423.25 -4409.74 -4416.55 -4424.53 -4421.33 -4423.54 -4426.83 -4432.42 -4435.77 -4445.07 -4430.14 -4259.78 -3866.92 -2822.96 -1636.89 -811.19 -353.34 -321.90 -297.49 -257.99 -194.27 -122.76 -81.28 -21.35 11.57 22.10 56.94 112.31 203.34 265.15 269.82 276.51 248.11 273.75 265.39 272.68 256.99 233.78 229.36 228.56 221.03 220.54 223.12 218.77 225.15 225.52 226.88 232.69 250.63 262.28 277.52 298.44 344.03 397.05 428.38 362.49 342.04 309.27 278.25 261.92 239.33 220.82 199.79 185.64 157.79 145.03 136.20 127.31 126.76 130.04 131.64 140.52 144.69 166.06 181.44 199.05 213.78 229.01 256.54 266.05 280.18 296.06 310.44 319.75 338.16 347.22 370.63 382.37 384.61 382.72 359.02 345.77 308.82 276.40 243.21 201.94 158.00 130.43 81.30 42.65 -11.40 -64.27 -971.63 -2001.59 -2849.66 -4307.56 -5370.39 -5439.56 -5254.75 -4690.38 -2870.55 -1103.43 -395.05 -274.44 -235.53 -259.58 -284.65 -351.30 -402.43 -666.76 -1144.62 -2015.12 -2885.18 -3329.66 -3818.84 -4025.25 -4098.25 -4099.24 -4103.15 -4106.83 -4111.14 -4112.46 -4125.79 -4133.77 -4133.89
-4395.23 -4395.14 -4426.93 -4433.38 -4437.97 -4438.17 -4436.34 -4438.97 -4439.32 -4436.20 -4435.86 -4439.09 -4446.39 -4449.91 -4457.28 -4468.12 -4444.06 -4349.84 -4088.24 -2798.96 -2423.26 -1141.71 -436.45 -335.77 -305.01 -271.65 -211.89 -141.45 -111.25 -66.08 -6.10 14.08 30.33 56.21 175.32 217.18 205.59 193.66 190.50 227.00 231.29 220.65 221.09 193.43 190.74 198.99 200.61 203.55 202.89 208.13 214.85 216.16 219.62 229.50 242.28 261.75 277.83 305.17 330.42 401.35 465.33 437.87 383.12 370.55 319.23 281.72 249.38 225.87 200.48 182.59 160.12 145.87 133.45 124.78 122.39 126.76 129.72 139.09 143.78 165.06 178.29 187.42 210.97 226.03 240.98 259.18 275.26 290.59 301.35 318.34 323.23 355.29 365.53 373.05 373.89 355.67 345.54 319.72 278.45 257.64 220.91 180.18 142.10 112.64 65.55 19.50 -34.01 -115.23 -988.67 -1565.14 -3571.60 -4709.87 -5377.97 -5522.62 -5333.49 -4180.04 -1889.09 -841.91 -353.96 -267.19 -252.49 -275.60 -310.87 -385.80 -521.62 -741.68 -1431.63 -1996.92 -3222.56 -3612.00 -4030.83 -4119.18 -4120.27 -4123.22 -4119.38 -4124.57 -4124.89 -4136.47 -4140.08 -4146.90 -4147.03
-4455.31 -4454.89 -4461.43 -4462.34 -4465.34 -4466.36 -4463.23 -4456.27 -4457.61 -4456.11 -4452.61 -4453.15 -4460.50 -4465.00 -4467.93 -4476.78 -4461.03 -4416.02 -4049.61 -3231.23 -1916.40 -844.71 -449.20 -326.97 -304.48 -273.05 -199.24 -169.18 -150.42 -103.23 -41.10 6.48 17.23 39.77 63.87 92.60 140.18 145.98 159.57 175.33 169.34 164.83 179.35 180.29 175.27 178.20 179.51 187.99 196.02 198.33 203.53 205.43 214.59 227.22 242.67 254.36 270.86 304.17 338.75 390.08 433.83 446.80 454.99 401.48 344.28 297.07 277.03 231.56 217.97 187.17 161.68 144.55 131.11 125.68 120.49 121.06 125.43 131.40 141.80 154.88 166.30 184.73 203.16 224.75 241.14 261.41 270.42 279.69 296.80 309.77 316.23 346.32 360.80 365.14 366.35 342.85 329.23 293.66 266.93 232.92 177.57 154.18 123.43 90.32 47.40 11.87 -426.30 -951.15 -1282.61 -2031.90 -3497.65 -4319.06 -5481.33 -5554.34 -5052.81 -3794.09 -2073.22 -690.55 -340.98 -244.33 -281.64 -296.09 -359.69 -485.90 -661.83 -880.22 -1595.40 -2112.26 -2954.14 -3790.22 -4058.55 -4137.36 -4133.77 -4136.94 -4137.18 -4139.50 -4142.51 -4153.02 -4157.25 -4160.89 -4161.06
-4476.26 -4476.20 -4478.67 -4483.40 -4481.28 -4479.51 -4477.46 -4485.22 -4476.33 -4473.97 -4476.06 -4471.17 -4472.86 -4474.07 -4480.41 -4485.24 -4466.57 -4287.26 -3893.72 -3179.06 -2205.38 -1102.97 -558.86 -336.50 -325.68 -274.59 -245.08 -186.27 -159.59 -142.37 -84.56 -39.56 -3.51 11.88 41.66 68.30 74.81 97.23 115.48 123.93 132.64 136.02 141.78 157.58 156.81 156.68 170.34 173.35 176.72 187.40 195.51 203.91 211.91 224.31 238.90 251.04 272.29 316.13 334.80 379.29 410.10 453.51 522.21 426.59 394.69 321.78 305.91 254.38 238.79 191.93 158.13 139.13 130.18 121.63 116.09 114.28 117.88 123.85 137.00 145.79 168.22 182.34 198.90 212.30 242.42 250.73 261.74 273.86 289.74 299.95 307.63 335.88 355.18 352.28 344.26 325.94 292.73 265.52 228.70 192.04 151.14 130.95 97.53 68.25 40.91 -195.66 -1206.74 -1543.82 -1874.57 -2130.66 -3415.39 -4734.53 -5327.67 -5526.51 -5010.16 -3365.79 -1705.54 -407.75 -229.82 -214.01 -279.83 -331.07 -425.11 -502.17 -756.28 -1027.15 -1314.59 -2078.85 -3024.87 -3525.11 -4014.79 -4154.55 -4152.28 -4156.39 -4157.55 -4157.32 -4160.11 -4162.08 -4167.21 -4173.39 -4173.49
-4499.57 -4499.79 -4501.51 -4501.03 -4505.26 -4499.76 -4495.60 -4496.17 -4486.96 -4483.62 -4490.82 -4491.29 -4487.46 -4487.97 -4488.79 -4485.93 -4415.92 -4141.05 -3683.07 -2839.27 -1499.50 -937.78 -489.70 -366.65 -349.53 -309.27 -263.48 -215.48 -180.39 -153.65 -100.56 -65.95 -26.54 0.36 27.26 40.60 57.75 74.48 75.47 76.35 90.62 101.05 109.57 127.71 129.36 141.30 145.51 156.16 168.47 177.81 183.90 196.97 210.39 227.95 240.69 250.50 275.95 293.75 331.12 355.44 411.58 451.02 500.08 460.93 414.36 396.70 375.53 297.22 240.65 200.43 159.09 142.46 125.87 116.34 112.41 111.23 113.16 118.02 130.12 141.45 162.24 175.58 187.76 206.20 223.10 242.22 256.10 261.11 279.25 295.93 304.92 321.85 334.72 335.78 323.34 295.17 270.96 236.40 196.17 171.31 140.97 108.33 80.82 58.58 21.81 -629.13 -1357.04 -1588.22 -1639.80 -2180.65 -3370.43 -4948.05 -5434.41 -5476.75 -5261.94 -4176.64 -1122.77 -643.03 -238.54 -244.13 -288.64 -339.75 -418.37 -470.07 -638.21 -1020.83 -1288.36 -2039.95 -2871.22 -3188.10 -3594.44 -4090.44 -4169.73 -4168.12 -4168.99 -4168.23 -4166.91 -4175.04 -4179.49 -4185.94 -4185.97
-4519.37 -4519.32 -4519.49 -4520.35 -4521.32 -4521.83 -4519.98 -4518.06 -4517.15 -4511.37 -4502.06 -4497.88 -4494.63 -4497.65 -4498.17 -4482.14 -4377.18 -4030.18 -3022.83 -1949.61 -1274.79 -882.33 -679.62 -438.21 -373.02 -327.41 -283.85 -253.07 -223.46 -184.74 -163.75 -131.71 -74.98 -12.89 10.25 21.33 32.83 56.53 53.77 58.26 73.79 94.86 97.76 100.74 118.79 124.22 131.55 141.85 154.51 167.07 177.24 187.26 205.88 216.25 234.27 249.67 271.01 291.69 315.50 334.90 378.57 406.84 396.33 402.75 385.28 367.34 366.01 287.02 234.44 186.90 153.61 131.27 115.36 110.68 108.21 106.14 107.72 113.71 123.24 142.94 151.69 171.85 186.75 201.29 215.70 231.55 248.08 259.83 265.95 288.17 301.07 308.76 318.98 319.28 305.11 281.05 249.56 211.20 186.37 168.09 112.43 106.54 67.60 -35.72 -603.31 -1417.16 -1491.81 -1486.01 -1559.50 -2316.66 -3188.98 -5246.46 -5413.72 -5595.66 -5420.14 -4214.98 -2318.05 -1172.15 -481.92 -323.53 -325.38 -334.22 -408.90 -463.43 -642.78 -901.89 -1443.12 -2037.58 -2776.82 -3122.15 -3816.99 -4074.64 -4185.56 -4180.48 -4181.26 -4177.26 -4178.72 -4184.17 -4190.41 -4198.44 -4198.49
-4534.52 -4534.45 -4534.09 -4536.84 -4534.49 -4534.19 -4529.69 -4526.27 -4525.04 -4520.89 -4517.01 -4511.01 -4508.05 -4505.70 -4504.16 -4481.66 -4344.91 -3853.92 -2496.30 -1751.69 -1227.06 -903.94 -794.42 -559.73 -396.27 -341.14 -316.59 -293.09 -240.70 -207.29 -195.08 -164.16 -120.03 -19.91 5.55 9.13 8.82 28.58 35.35 39.30 50.27 62.11 83.52 83.59 98.55 105.05 117.26 131.51 138.93 154.94 167.00 182.78 199.55 212.99 231.04 245.41 266.66 289.08 312.51 325.86 345.71 365.51 340.71 321.58 313.23 305.78 279.99 265.89 222.96 155.63 135.29 122.83 111.86 107.26 102.44 100.43 104.44 109.96 116.14 126.06 148.37 156.85 180.48 186.73 214.97 223.55 235.13 252.68 261.49 274.73 293.70 301.62 302.72 296.17 282.92 271.90 237.74 185.29 167.19 133.87 102.62 84.64 48.09 -253.58 -880.40 -1476.25 -1417.51 -1420.02 -1642.87 -2577.78 -3762.81 -5131.38 -5561.31 -5609.64 -5498.85 -4752.13 -3452.47 -1949.76 -1456.30 -356.57 -368.54 -338.66 -379.18 -502.36 -634.84 -1048.35 -1652.94 -2329.88 -2814.81 -3321.21 -3891.59 -4135.39 -4198.22 -4194.84 -4193.26 -4193.68 -4191.78 -4197.59 -4204.74 -4211.16 -4211.23
-4547.17 -4547.10 -4547.29 -4550.07 -4547.94 -4545.33 -4543.05 -4541.59 -4538.91 -4534.33 -4527.89 -4523.68 -4515.74 -4513.63 -4511.83 -4485.44 -4310.66 -3966.82 -2751.29 -1895.57 -1332.20 -990.75 -869.02 -642.21 -527.14 -350.18 -339.13 -299.10 -286.65 -257.22 -228.49 -200.03 -149.15 -106.74 -38.82 -19.44 1.62 14.31 25.11 32.42 35.87 36.83 47.39 61.05 85.96 90.16 107.27 120.59 132.86 147.12 159.06 170.67 187.82 207.94 224.83 239.50 264.26 283.64 298.90 319.64 314.56 305.44 300.69 291.01 265.96 264.22 267.42 225.79 207.97 158.67 138.06 118.43 104.21 99.76 96.09 93.11 94.72 100.88 109.79 126.24 140.10 157.08 172.21 180.98 200.19 217.73 228.76 244.07 255.54 272.78 284.30 289.61 281.23 271.00 251.43 238.50 205.56 156.55 133.72 109.02 97.37 66.70 41.40 -313.03 -1015.59 -1490.05 -1396.60 -1435.37 -1614.83 -2816.19 -4140.78 -4977.64 -5580.86 -5630.29 -5621.50 -5382.99 -4767.66 -2964.81 -1963.14 -1005.08 -412.07 -361.51 -417.35 -597.19 -875.70 -1335.89 -1993.91 -2557.94 -2935.39 -3480.09 -4013.28 -4117.91 -4207.28 -4205.49 -4206.02 -4201.29 -4200.87 -4206.36 -4212.85 -4221.58 -4221.66
-4558.82 -4558.75 -4559.88 -4557.94 -4562.41 -4558.57 -4556.18 -4552.49 -4549.41 -4543.47 -4541.20 -4533.33 -4525.25 -4521.78 -4517.27 -4501.66 -4397.69 -4228.91 -3503.32 -2851.03 -1797.84 -1292.53 -1018.49 -844.39 -710.40 -470.94 -353.66 -326.21 -303.63 -275.42 -249.34 -207.38 -170.61 -136.19 -94.13 -66.62 -2.85 3.15 15.56 17.67 22.57 31.68 37.82 46.95 66.04 82.15 95.36 104.75 122.26 130.32 152.14 165.74 184.89 204.99 222.39 238.62 259.66 289.36 313.29 303.11 291.83 284.56 282.42 259.61 218.39 215.39 215.76 210.98 181.47 148.25 124.16 109.63 100.94 91.49 87.55 87.46 90.54 93.11 100.38 117.83 136.71 146.56 158.17 171.79 189.20 213.19 227.18 241.54 256.62 267.90 273.42 272.39 260.23 235.50 217.69 170.58 157.94 131.94 110.73 97.96 79.55 44.48 -134.96 -563.46 -1355.52 -1474.09 -1378.10 -1455.97 -1605.14 -2743.66 -4102.07 -5311.36 -5568.60 -5644.44 -5653.24 -5561.38 -5381.23 -4711.14 -3011.95 -1871.89 -610.54 -444.02 -468.97 -592.79 -1127.05 -1784.37 -1973.61 -2869.28 -3129.74 -3539.70 -4064.34 -4223.63 -4220.79 -4220.34 -4215.32 -4209.74 -4211.50 -4215.37 -4223.86 -4232.36 -4232.43
-4570.00 -4570.36 -4571.41 -4571.24 -4570.50 -4571.56 -4566.27 -4562.84 -4562.95 -4551.17 -4546.58 -4541.14 -4534.18 -4528.74 -4519.24 -4510.77 -4444.22 -4267.69 -3862.29 -3385.99 -2862.64 -1906.74 -1289.33 -928.90 -817.93 -757.49 -411.14 -366.60 -340.35 -296.48 -260.70 -238.51 -190.92 -171.88 -152.37 -116.71 -40.83 -18.53 -9.35 1.70 9.89 17.31 27.27 41.09 47.59 59.73 89.26 88.95 107.01 122.43 138.25 164.80 174.09 193.58 212.91 241.99 280.30 305.69 336.83 290.21 281.10 271.67 251.20 229.49 207.08 191.91 189.24 175.89 163.22 145.35 121.14 108.04 96.23 86.05 81.06 82.07 85.90 90.69 99.88 108.90 124.41 138.27 152.40 170.25 182.79 196.43 236.27 253.01 262.86 260.55 251.73 240.68 233.34 217.11 182.29 153.72 129.60 104.62 89.32 68.50 54.41 38.29 -52.20 -632.64 -1255.27 -1447.04 -1391.28 -1493.01 -1770.30 -2855.76 -4437.85 -5240.72 -5588.48 -5646.23 -5665.55 -5648.39 -5488.90 -5166.65 -3685.67 -1926.38 -706.90 -464.91 -549.61 -749.99 -1087.61 -1645.27 -2072.24 -2897.47 -3618.01 -4029.69 -4173.59 -4232.82 -4228.36 -4227.77 -4224.02 -4223.49 -4225.33 -4226.63 -4232.43 -4242.32 -4242.39
-4580.78 -4580.70 -4581.79 -4582.90 -4583.11 -4580.73 -4579.92 -4573.15 -4570.59 -4567.55 -4560.79 -4552.20 -4539.14 -4534.81 -4529.06 -4524.76 -4506.34 -4476.88 -4294.52 -4160.88 -3463.81 -2438.90 -1674.04 -1086.00 -899.88 -867.86 -707.51 -606.63 -363.27 -328.34 -293.47 -263.87 -222.41 -177.42 -171.46 -155.80 -110.79 -65.44 -39.28 -12.38 -1.31 3.83 10.57 25.94 39.07 46.40 70.06 82.29 87.09 108.80 128.48 149.32 166.66 196.90 238.94 260.87 305.74 353.98 342.88 296.47 276.48 248.08 229.51 203.70 192.72 182.65 174.74 148.65 136.83 131.02 117.62 102.35 90.79 79.89 77.69 77.41 81.42 86.58 93.09 104.35 117.82 128.83 142.80 170.23 184.77 200.89 239.79 262.23 270.45 256.56 240.95 214.41 199.72 167.19 158.93 128.86 119.26 94.80 73.01 48.20 32.66 -5.47 -255.00 -1020.67 -1416.88 -1451.99 -1423.91 -1577.89 -2239.66 -3196.79 -4748.21 -5351.18 -5604.84 -5647.79 -5670.25 -5673.36 -5612.54 -5345.66 -3751.17 -2434.32 -785.45 -510.15 -567.49 -836.57 -1122.74 -1742.24 -2596.56 -3180.14 -3956.33 -4148.12 -4242.07 -4242.24 -4239.10 -4235.69 -4232.81 -4229.80 -4231.40 -4235.66 -4240.60 -4251.43 -4251.50
-4591.19 -4591.73 -4592.02 -4592.58 -4590.52 -4588.73 -4587.52 -4585.60 -4580.71 -4574.64 -4565.99 -4559.88 -4551.70 -4545.91 -4538.54 -4529.83 -4520.22 -4506.79 -4463.61 -4245.41 -4028.66 -3211.89 -1701.34 -1242.09 -878.84 -863.41 -861.54 -657.66 -506.63 -350.34 -305.81 -280.76 -228.54 -201.08 -190.22 -179.71 -139.10 -122.84 -117.21 -37.18 -18.63 -12.54 -0.03 19.71 31.36 39.09 52.08 68.42 78.03 105.34 119.17 140.24 182.50 196.51 241.76 299.78 369.46 376.91 343.12 287.93 253.46 213.38 205.40 189.94 177.77 163.15 152.14 137.22 129.91 111.93 102.30 88.20 79.48 72.25 70.24 71.45 75.25 78.52 83.40 96.76 104.83 117.90 123.03 154.82 174.26 199.46 231.46 258.69 266.73 251.63 216.99 185.81 159.18 140.26 115.78 99.20 76.41 65.90 51.16 38.25 5.29 -79.47 -587.32 -1238.62 -1403.13 -1446.59 -1486.09 -1611.81 -2056.59 -3456.37 -5092.40 -5429.10 -5610.54 -5643.75 -5670.73 -5699.29 -5637.11 -5425.03 -3895.11 -2377.66 -919.37 -539.24 -617.88 -863.63 -1307.03 -1898.31 -2274.92 -3176.45 -3907.66 -4203.52 -4251.82 -4251.31 -4247.30 -4242.94 -4244.58 -4237.60 -4239.16 -4247.04 -4252.52 -4260.10 -4260.17
-4601.22 -4601.15 -4601.11 -4603.73 -4605.69 -4604.87 -4597.65 -4596.29 -4591.66 -4585.33 -4578.38 -4570.16 -4564.18 -4552.83 -4548.17 -4539.76 -4532.61 -4529.64 -4519.16 -4438.09 -4264.40 -3418.27 -2384.53 -1549.01 -966.96 -838.76 -846.03 -895.87 -826.43 -598.08 -380.83 -355.22 -284.11 -264.61 -233.02 -210.41 -181.49 -163.57 -132.29 -75.66 -60.78 -35.42 -17.41 6.50 17.12 25.94 36.52 53.74 64.07 88.96 108.15 125.30 175.29 212.11 282.91 319.12 358.80 353.72 323.90 279.01 231.93 201.69 185.52 156.83 152.29 142.67 137.12 136.00 114.64 100.03 92.95 78.99 73.54 67.69 66.41 67.09 64.02 69.26 71.97 86.11 96.24 104.54 117.78 137.84 165.75 189.20 215.52 241.14 263.35 254.16 243.95 234.84 137.76 105.52 102.26 95.97 54.39 46.33 37.39 -23.86 -235.37 -515.87 -1087.90 -1435.99 -1432.32 -1418.30 -1486.04 -1539.17 -2648.81 -3767.35 -4992.48 -5596.29 -5627.50 -5642.51 -5672.79 -5701.90 -5632.90 -5268.03 -3504.36 -2105.66 -722.90 -482.06 -668.51 -1012.82 -1250.10 -1897.76 -3083.31 -3437.77 -4095.43 -4262.51 -4259.41 -4259.83 -4257.44 -4253.13 -4248.85 -4248.92 -4249.01 -4254.45 -4259.02 -4267.23 -4267.30
-4610.93 -4610.86 -4611.87 -4613.09 -4612.60 -4611.27 -4610.84 -4606.06 -4601.71 -4596.11 -4592.44 -4578.26 -4573.02 -4568.65 -4555.69 -4549.40 -4539.08 -4535.99 -4520.95 -4495.19 -4137.80 -3475.22 -2375.50 -1413.82 -867.13 -820.80 -837.61 -883.85 -936.76 -958.16 -832.42 -530.45 -450.92 -298.50 -245.56 -222.16 -214.46 -189.41 -164.08 -149.87 -113.14 -88.97 -44.21 -20.27 -4.76 15.83 19.81 28.27 44.97 75.11 96.08 112.99 152.60 230.48 286.75 309.46 299.47 286.09 238.78 237.47 205.17 195.95 162.89 149.72 140.64 129.69 122.00 112.42 102.40 92.74 85.94 76.29 64.68 60.97 59.98 57.52 56.88 60.75 61.40 74.13 83.28 93.31 112.99 129.19 159.00 177.22 204.05 238.08 252.27 227.36 212.24 193.44 141.09 93.40 85.10 52.78 29.13 31.04 -1.60 -506.56 -1318.41 -1428.61 -1424.18 -1401.12 -1416.51 -1446.15 -1503.61 -1867.40 -2941.96 -4031.82 -5020.35 -5516.41 -5622.26 -5632.35 -5667.55 -5672.38 -5463.43 -5019.72 -3098.60 -1973.61 -546.25 -541.77 -779.91 -1311.64 -1868.64 -2422.22 -3547.50 -4113.42 -4205.11 -4270.84 -4268.72 -4267.79 -4264.27 -4259.42 -4258.25 -4256.01 -4257.22 -4263.27 -4265.73 -4272.04 -4272.82
-4620.25 -4620.18 -4620.73 -4623.44 -4624.21 -4622.34 -4619.64 -4616.65 -4615.00 -4606.39 -4601.96 -4596.49 -4589.67 -4579.91 -4571.27 -4567.61 -4556.39 -4548.41 -4524.08 -4439.20 -3897.31 -3358.14 -2175.28 -1287.36 -963.42 -1020.56 -1222.78 -1089.05 -1102.16 -1215.45 -1248.11 -1041.92 -747.53 -313.71 -307.46 -258.10 -242.24 -228.06 -207.02 -183.07 -146.36 -123.60 -95.99 -72.74 -59.59 -38.21 4.35 19.35 24.66 52.91 82.43 117.15 176.90 241.16 273.65 264.70 235.83 216.70 202.17 177.08 169.71 157.23 153.05 109.94 106.02 107.26 105.55 101.50 92.80 79.53 71.87 62.78 59.32 55.20 53.16 51.07 49.89 51.07 55.92 65.35 72.22 81.54 92.01 102.21 129.72 148.74 184.64 218.46 231.65 224.98 216.97 135.96 99.88 70.19 48.33 35.62 16.93 -1.06 -279.22 -1084.59 -1553.80 -1566.41 -1508.36 -1391.94 -1410.24 -1482.95 -1583.90 -2072.81 -3124.07 -4450.89 -5087.46 -5532.03 -5600.16 -5623.27 -5649.53 -5671.66 -5551.51 -4655.07 -2920.77 -1439.62 -664.75 -788.92 -1258.84 -1787.83 -2678.14 -3531.28 -4159.81 -4272.69 -4283.57 -4278.82 -4278.43 -4274.99 -4267.94 -4266.43 -4265.00 -4264.53 -4265.41 -4268.55 -4272.15 -4278.75 -4278.82
-4629.10 -4629.78 -4631.75 -4631.17 -4631.91 -4630.35 -4630.47 -4626.32 -4626.50 -4621.69 -4617.59 -4611.75 -4609.13 -4593.38 -4584.63 -4580.12 -4574.60 -4568.90 -4532.31 -4374.89 -3905.34 -3006.56 -2053.47 -1507.36 -1535.02 -1584.08 -1630.24 -1754.63 -1991.87 -1887.89 -2155.09 -2201.10 -1505.51 -523.37 -335.64 -289.65 -276.51 -257.75 -245.99 -222.32 -182.61 -167.59 -141.45 -125.12 -76.75 -43.75 -2.85 8.27 9.94 22.97 87.86 138.37 215.19 274.52 217.18 186.96 179.68 155.69 165.57 147.82 145.78 110.06 99.08 98.13 97.53 95.68 92.44 89.38 84.47 71.34 63.30 55.13 50.74 44.33 43.02 39.97 40.04 42.57 44.74 48.05 58.53 70.15 79.90 93.37 113.30 125.00 175.81 197.95 213.40 208.12 211.53 157.97 78.92 47.43 33.30 9.78 -15.44 -134.03 -745.89 -1368.74 -1591.97 -1468.35 -1425.39 -1402.57 -1449.45 -1521.75 -1613.54 -2324.36 -3190.65 -4768.31 -5412.24 -5553.21 -5594.76 -5618.10 -5642.85 -5646.48 -5329.94 -4970.12 -2414.04 -970.47 -900.53 -1478.20 -1801.46 -2164.27 -3188.53 -4116.84 -4302.43 -4290.72 -4286.50 -4286.60 -4286.28 -4284.46 -4277.70 -4270.32 -4270.60 -4270.67 -4271.44 -4275.21 -4280.02 -4283.94 -4284.01
-4637.41 -4637.34 -4637.87 -4638.27 -4640.42 -4644.00 -4640.72 -4637.93 -4637.67 -4631.59 -4631.19 -4625.48 -4622.11 -4614.13 -4607.52 -4599.67 -4596.47 -4584.10 -4568.80 -4435.94 -4069.45 -3188.71 -2511.21 -2202.17 -2229.48 -2480.68 -2629.40 -2784.39 -2834.17 -3220.40 -3231.75 -3105.36 -2687.63 -384.85 -354.57 -337.04 -313.19 -291.56 -272.94 -251.80 -248.27 -230.32 -188.82 -150.03 -120.12 -89.47 -31.93 -0.78 0.30 25.17 71.57 124.59 221.18 214.22 194.43 141.01 131.10 129.19 114.11 100.62 96.57 98.97 87.78 81.99 80.32 83.34 78.42 81.77 66.37 57.14 54.38 45.38 41.47 38.68 38.14 35.94 36.47 36.30 38.83 42.03 47.23 51.96 64.91 76.14 86.37 106.05 146.57 159.53 182.46 194.66 163.62 102.86 77.44 21.78 11.76 -8.61 -36.97 -283.74 -1156.62 -1541.60 -1540.37 -1458.72 -1461.14 -1465.41 -1540.22 -1666.82 -2075.07 -2896.35 -3966.56 -5032.75 -5477.35 -5534.73 -5590.99 -5615.23 -5646.06 -5580.86 -5297.54 -4119.53 -2078.55 -1277.91 -1200.28 -1755.64 -2404.59 -2662.14 -3378.71 -4127.55 -4267.66 -4295.75 -4296.68 -4296.10 -4292.99 -4286.29 -4284.92 -4283.26 -4280.91 -4278.14 -4278.08 -4281.70 -4284.08 -4288.28 -4288.35
-4645.45 -4645.38 -4646.75 -4649.79 -4651.59 -4650.86 -4653.74 -4651.04 -4647.33 -4649.15 -4647.18 -4640.48 -4636.72 -4630.55 -4631.11 -4621.74 -4616.74 -4612.39 -4599.04 -4478.99 -4263.42 -3874.28 -3525.28 -3421.97 -3364.24 -3911.15 -3996.12 -3953.39 -4137.33 -4037.99 -4232.18 -4388.60 -3708.53 -1279.57 -414.04 -457.84 -342.59 -316.76 -296.32 -289.28 -272.81 -230.87 -203.72 -177.09 -162.09 -131.18 -60.64 -36.21 -16.46 1.88 18.15 85.26 170.68 141.16 105.37 88.67 84.27 79.58 78.22 68.47 70.48 66.71 69.78 69.32 65.17 64.55 65.81 55.29 52.47 47.10 36.25 36.16 34.71 30.00 31.45 33.44 29.00 27.18 32.71 36.71 39.40 42.77 53.81 58.40 73.57 84.20 114.38 131.13 145.27 143.94 113.51 86.81 34.77 -4.25 -251.37 -117.36 -200.19 -626.39 -1445.95 -1602.91 -1530.46 -1492.19 -1553.49 -1610.84 -1716.57 -2167.15 -2464.39 -3656.16 -4752.32 -5297.26 -5474.33 -5543.45 -5590.75 -5613.05 -5639.31 -5567.16 -5199.27 -3605.81 -2161.82 -1460.00 -1650.99 -1917.70 -2625.14 -3502.39 -3732.18 -4167.69 -4295.63 -4312.31 -4308.40 -4304.81 -4303.13 -4300.35 -4292.88 -4289.08 -4285.39 -4284.86 -4283.12 -4288.32 -4290.03 -4291.90 -4291.97
-4653.48 -4653.41 -4654.87 -4658.95 -4658.54 -4662.27 -4662.64 -4659.63 -4660.63 -4661.05 -4659.73 -4655.36 -4653.75 -4653.88 -4647.06 -4645.40 -4634.38 -4633.14 -4620.72 -4606.84 -4543.16 -4333.23 -4216.55 -4138.60 -4234.39 -4316.12 -4412.11 -4386.63 -4512.33 -4535.87 -4636.94 -4766.88 -4374.58 -3723.57 -2477.51 -1107.13 -467.17 -342.35 -339.75 -311.34 -295.68 -259.94 -225.77 -234.89 -203.73 -164.02 -110.34 -69.50 -40.45 -4.33 10.03 52.25 96.28 57.60 47.48 43.11 55.47 48.89 55.61 56.15 56.32 58.99 62.86 59.07 57.76 51.92 50.43 46.40 40.20 34.34 32.52 32.52 27.72 19.86 23.95 22.38 19.32 19.97 19.67 25.22 29.34 30.77 37.06 36.52 51.67 61.88 78.49 91.87 90.12 91.12 77.82 32.75 15.44 -59.84 -447.46 -693.40 -953.06 -1444.44 -1633.11 -1548.26 -1589.21 -1818.33 -1835.75 -2307.22 -2541.38 -2808.56 -4121.93 -4580.44 -5159.44 -5428.85 -5542.17 -5563.21 -5598.66 -5616.28 -5631.62 -5548.49 -4692.85 -3959.85 -2399.54 -1479.96 -1806.25 -2375.72 -2919.04 -3736.37 -3944.70 -4207.85 -4304.49 -4318.59 -4313.28 -4310.24 -4307.60 -4304.39 -4298.61 -4295.81 -4292.92 -4290.61 -4290.29 -4294.08 -4295.02 -4297.18 -4297.25
-4661.75 -4661.68 -4664.07 -4667.36 -4667.76 -4672.45 -4674.13 -4675.96 -4675.35 -4672.78 -4675.55 -4675.78 -4669.66 -4670.36 -4668.93 -4673.19 -4664.71 -4663.12 -4661.29 -4642.79 -4652.20 -4645.04 -4570.17 -4566.27 -4581.15 -4602.95 -4608.48 -4637.78 -4635.13 -4655.60 -4691.03 -4734.95 -4762.95 -4450.81 -2705.32 -1812.78 -832.36 -627.27 -629.21 -456.57 -325.86 -302.01 -293.69 -291.26 -242.82 -213.38 -189.22 -137.78 -63.25 -28.44 -40.24 -11.49 14.77 12.18 34.88 27.14 30.64 39.45 41.03 31.71 36.73 37.05 45.48 39.82 43.10 39.77 38.87 33.73 31.03 26.70 27.18 20.65 14.30 15.54 11.70 9.36 9.36 11.14 11.88 14.66 18.71 23.29 26.96 29.82 29.69 34.00 56.61 67.01 64.82 59.33 42.66 13.49 10.16 -156.27 -657.82 -1217.06 -1691.30 -1632.71 -1557.64 -1654.69 -1992.20 -2220.00 -2385.74 -2897.63 -3559.47 -4233.04 -4802.22 -5320.11 -5533.64 -5608.86 -5595.15 -5589.03 -5601.51 -5606.07 -5644.63 -5599.73 -4994.63 -3034.96 -2027.97 -1386.99 -2010.70 -2660.06 -3062.96 -3807.26 -4119.30 -4266.19 -4328.76 -4321.47 -4318.14 -4314.23 -4311.91 -4311.40 -4306.88 -4304.34 -4298.25 -4296.05 -4297.55 -4300.61 -4301.55 -4301.86 -4301.92
-4670.47 -4670.41 -4671.96 -4675.83 -4679.55 -4681.88 -4683.25 -4685.88 -4689.46 -4690.47 -4691.61 -4693.07 -4695.38 -4694.61 -4694.70 -4692.76 -4690.65 -4684.31 -4679.03 -4686.20 -4674.60 -4671.12 -4655.53 -4665.56 -4654.52 -4673.91 -4677.07 -4677.02 -4678.51 -4682.78 -4691.58 -4707.84 -4745.05 -4666.65 -3405.73 -2587.76 -1500.49 -1082.15 -880.76 -630.01 -405.18 -366.95 -331.34 -314.82 -288.79 -247.42 -216.29 -205.00 -189.46 -141.68 -97.71 -64.30 -33.73 -5.72 0.24 2.38 13.74 16.81 16.74 17.95 20.45 24.35 34.68 33.27 29.25 29.59 25.84 25.34 19.72 19.15 13.96 10.05 9.44 7.32 6.46 1.00 5.91 7.76 2.29 1.83 6.92 12.94 16.94 20.36 22.59 25.24 27.26 51.08 41.11 25.18 4.44 -31.13 -101.79 -464.52 -1245.61 -1423.36 -1595.91 -1642.96 -1878.19 -2288.00 -3387.48 -3255.12 -3717.74 -4353.84 -4913.71 -5289.51 -5409.94 -5653.74 -5636.86 -5708.20 -5702.37 -5622.62 -5551.12 -5534.80 -5496.39 -5312.61 -4311.92 -2743.05 -1428.32 -1220.77 -1949.21 -2690.48 -3294.39 -3831.17 -4180.81 -4291.82 -4330.97 -4331.57 -4323.47 -4319.31 -4317.58 -4314.50 -4313.02 -4310.14 -4305.56 -4303.03 -4302.97 -4307.70 -4307.39 -4307.45 -4307.51
-4679.68 -4679.62 -4683.36 -4685.81 -4690.70 -4694.63 -4694.54 -4696.99 -4699.24 -4700.90 -4703.30 -4704.37 -4704.44 -4710.34 -4716.32 -4716.08 -4715.38 -4711.88 -4711.55 -4703.48 -4711.38 -4705.81 -4700.92 -4700.73 -4690.79 -4696.35 -4697.57 -4696.41 -4699.28 -4696.89 -4703.98 -4709.49 -4742.28 -4718.33 -4243.31 -3430.19 -1747.11 -1419.36 -1163.48 -763.56 -670.19 -419.96 -384.08 -357.13 -313.49 -289.53 -248.14 -246.72 -231.57 -200.02 -143.37 -116.63 -101.41 -22.64 -8.89 -31.72 -4.60 -0.82 9.01 8.57 10.45 9.98 16.00 16.61 17.24 17.07 15.20 13.52 14.33 8.71 6.91 3.83 -0.63 -4.46 -13.13 -8.92 -1.15 -5.55 -14.17 -11.95 -2.94 2.56 1.98 9.27 3.86 5.14 18.53 1.00 -2.14 5.68 -70.97 -169.57 -531.48 -1131.57 -1633.14 -1594.01 -1724.53 -2056.23 -2530.37 -3275.06 -4244.37 -4877.83 -5054.45 -5289.36 -5448.60 -5580.48 -5669.59 -5777.91 -5211.81 -5013.07 -5368.09 -5354.55 -5130.37 -4890.68 -4758.80 -4166.94 -3851.12 -2094.48 -1049.44 -1452.42 -1953.24 -2817.84 -3562.00 -3952.59 -4226.75 -4320.78 -4339.03 -4337.95 -4333.97 -4334.36 -4331.32 -4324.59 -4319.96 -4317.82 -4312.27 -4310.47 -4310.02 -4311.87 -4312.54 -4312.57 -4312.63
-4689.56 -4689.50 -4691.99 -4698.04 -4702.58 -4705.82 -4710.06 -4712.53 -4712.22 -4716.42 -4719.90 -4722.06 -4725.89 -4724.52 -4734.46 -4734.78 -4737.20 -4739.52 -4734.34 -4735.37 -4736.95 -4729.47 -4730.12 -4729.60 -4719.03 -4727.06 -4719.89 -4718.49 -4720.19 -4720.43 -4721.61 -4729.58 -4730.86 -4695.85 -4502.44 -3890.80 -2739.96 -1603.80 -1382.31 -1089.83 -930.77 -772.21 -564.11 -383.94 -361.21 -322.76 -282.24 -299.59 -270.62 -234.31 -221.44 -206.25 -172.20 -114.37 -133.15 -122.68 -76.56 -40.54 -26.13 -21.83 -10.79 -10.81 -2.10 7.99 7.62 11.35 9.17 7.55 4.96 0.52 -1.58 -5.73 -11.59 -15.94 -18.74 -25.70 -27.83 -21.51 -21.71 -16.26 -13.21 -4.81 -2.90 -2.69 -14.20 -6.10 -30.65 -61.11 -78.71 -109.85 -180.76 -226.43 -399.50 -840.77 -1771.10 -1794.22 -2257.37 -3189.80 -3847.82 -4995.29 -5231.43 -5399.99 -5597.64 -5681.74 -5789.59 -5867.75 -5859.84 -5897.79 -5001.00 -3121.08 -3730.24 -4022.95 -3607.53 -2355.70 -2441.76 -2383.34 -1746.57 -1120.31 -1044.62 -1473.61 -2095.30 -2927.48 -3369.51 -3881.52 -4233.17 -4322.68 -4336.81 -4341.24 -4339.69 -4339.32 -4337.13 -4333.98 -4329.43 -4322.93 -4319.73 -4315.09 -4319.34 -4319.43 -4316.93 -4318.84 -4318.91
-4700.50 -4702.08 -4705.98 -4707.81 -4711.81 -4716.31 -4720.50 -4720.56 -4731.48 -4734.65 -4733.66 -4737.92 -4740.12 -4751.11 -4754.32 -4758.87 -4760.23 -4769.36 -4766.62 -4767.25 -4765.41 -4755.00 -4751.62 -4745.93 -4747.58 -4740.51 -4743.29 -4735.20 -4737.67 -4739.48 -4734.89 -4736.99 -4742.43 -4730.56 -4620.30 -4149.80 -3145.45 -2156.62 -1450.26 -1159.17 -985.56 -867.93 -698.55 -504.90 -382.73 -341.17 -316.04 -329.78 -306.94 -302.45 -260.97 -260.14 -219.86 -186.59 -192.37 -185.52 -158.15 -105.63 -90.06 -51.81 -71.27 -35.51 -16.93 -6.79 -14.01 -10.18 -1.31 -4.60 -1.50 -3.71 -18.57 -31.08 -40.82 -39.47 -38.64 -41.80 -44.11 -37.15 -37.14 -39.69 -41.33 -26.56 -18.40 -31.16 -52.23 -49.04 -73.49 -83.48 -136.71 -165.51 -250.02 -322.75 -471.37 -1203.46 -2168.60 -2451.10 -3411.75 -4082.33 -4998.75 -5158.55 -5626.58 -5670.72 -5790.27 -5976.63 -5360.73 -4867.80 -4689.55 -3446.46 -2911.08 -623.64 -483.12 -617.79 17.39 11.06 -420.30 -1248.93 -961.51 -861.23 -894.48 -1564.80 -2049.93 -2851.87 -3324.85 -3896.41 -4226.01 -4319.10 -4342.85 -4347.11 -4345.99 -4342.35 -4344.78 -4340.89 -4335.48 -4334.07 -4331.06 -4325.70 -4323.08 -4324.29 -4323.45 -4324.80 -4324.72
-4712.80 -4712.74 -4714.24 -4721.38 -4727.80 -4728.71 -4736.77 -4741.29 -4743.89 -4746.39 -4755.25 -4757.25 -4761.63 -4766.30 -4775.28 -4775.47 -4773.95 -4785.58 -4787.80 -4789.62 -4789.77 -4784.69 -4784.36 -4775.82 -4771.74 -4764.10 -4764.69 -4762.43 -4750.96 -4754.95 -4752.75 -4753.73 -4757.67 -4754.63 -4640.25 -4202.55 -3637.27 -2386.27 -1454.04 -1094.31 -978.88 -869.22 -823.25 -630.85 -451.38 -387.53 -366.52 -365.10 -356.91 -355.80 -329.70 -284.50 -257.28 -230.07 -239.37 -223.87 -197.37 -153.31 -152.10 -161.95 -140.38 -107.08 -72.43 -44.19 -58.05 -87.86 -56.86 -19.36 -27.05 -41.38 -50.99 -57.99 -60.66 -61.99 -63.54 -64.88 -66.17 -67.27 -60.29 -61.61 -61.06 -62.47 -60.19 -69.48 -63.90 -67.66 -75.33 -126.10 -174.72 -222.00 -289.44 -346.87 -1095.92 -2026.07 -2872.18 -3382.59 -4676.74 -5114.70 -5480.21 -5626.53 -5790.79 -5904.42 -6016.14 -5171.67 -3296.15 -2293.23 -2779.58 -1584.19 6.72 22.01 28.13 29.78 21.51 17.57 9.89 -229.36 -736.08 -895.41 -1091.41 -1393.89 -2113.82 -2648.39 -3380.59 -3958.02 -4211.66 -4329.32 -4353.53 -4351.03 -4351.91 -4354.20 -4353.38 -4348.38 -4342.03 -4340.12 -4340.25 -4339.00 -4334.25 -4331.74 -4329.18 -4330.82 -4330.88
-4726.96 -4726.91 -4730.44 -4735.62 -4746.24 -4745.27 -4750.37 -4756.48 -4761.66 -4769.86 -4768.56 -4772.55 -4776.18 -4782.31 -4788.81 -4795.75 -4799.29 -4806.07 -4809.44 -4816.54 -4811.40 -4812.36 -4803.91 -4799.64 -4795.58 -4786.29 -4779.44 -4780.03 -4780.04 -4772.78 -4770.61 -4768.41 -4769.79 -4773.05 -4716.17 -4382.97 -3747.79 -2927.96 -1626.00 -1293.66 -1060.26 -913.40 -865.69 -692.90 -538.22 -447.87 -410.37 -388.42 -381.31 -381.93 -369.52 -335.57 -316.07 -269.73 -265.93 -242.39 -216.89 -209.15 -182.88 -181.22 -172.17 -136.53 -126.30 -126.06 -127.39 -129.37 -85.05 -63.98 -67.85 -70.71 -91.52 -92.25 -94.82 -99.19 -94.97 -93.90 -89.44 -83.70 -94.60 -95.70 -94.89 -86.40 -80.99 -81.59 -81.93 -77.50 -85.93 -146.82 -192.79 -235.59 -256.62 -472.16 -1715.70 -2548.72 -2954.27 -4374.71 -5205.06 -5336.43 -5330.94 -5615.41 -5742.13 -5202.80 -4350.08 -2167.27 -832.81 -195.21 -27.31 9.77 24.82 33.27 38.20 36.17 27.54 20.95 13.90 -50.92 -320.83 -1011.77 -1361.77 -1727.42 -2111.21 -2901.31 -3444.45 -3948.05 -4263.18 -4358.21 -4361.92 -4367.28 -4362.37 -4358.07 -4363.02 -4362.01 -4359.45 -4355.42 -4352.70 -4348.73 -4343.82 -4339.39 -4336.45 -4337.26 -4337.32
-4743.58 -4743.53 -4745.82 -4755.00 -4755.48 -4768.08 -4766.74 -4777.36 -4776.37 -4784.08 -4787.89 -4793.48 -4801.13 -4807.03 -4811.37 -4815.96 -4826.86 -4833.77 -4835.15 -4843.81 -4836.92 -4834.77 -4829.22 -4821.06 -4816.99 -4813.81 -4809.12 -4792.93 -4792.43 -4789.65 -4790.60 -4790.47 -4789.36 -4789.47 -4734.11 -4665.00 -3976.94 -3186.58 -2002.58 -1310.36 -1177.47 -1058.30 -979.63 -875.34 -778.33 -618.29 -450.49 -434.55 -433.26 -428.32 -394.69 -381.25 -363.39 -319.58 -301.94 -275.99 -279.22 -262.33 -241.66 -242.76 -205.50 -183.43 -175.55 -162.42 -151.78 -136.02 -108.85 -103.85 -99.09 -101.22 -111.13 -114.80 -120.51 -129.06 -127.48 -130.76 -126.81 -122.13 -129.46 -126.57 -117.80 -109.22 -98.33 -106.98 -104.41 -97.79 -81.12 -111.36 -155.13 -193.78 -244.82 -374.54 -1386.07 -2415.53 -3239.42 -4118.80 -5114.55 -4007.39 -3277.87 -1809.52 -2438.18 -2556.79 -1031.93 -24.76 -10.24 19.58 33.69 34.09 37.72 37.09 37.13 34.56 27.43 19.91 14.15 -2.40 -637.85 -1349.73 -1705.38 -1999.59 -2627.30 -3038.19 -3583.06 -4149.54 -4297.54 -4364.29 -4370.16 -4372.30 -4370.83 -4375.26 -4377.14 -4371.47 -4371.17 -4370.78 -4366.21 -4362.56 -4354.92 -4350.00 -4347.81 -4344.26 -4344.32
-4763.03 -4765.82 -4770.40 -4773.45 -4780.17 -4782.74 -4788.16 -4792.55 -4799.00 -4803.71 -4807.45 -4813.62 -4817.40 -4819.90 -4828.85 -4839.37 -4844.98 -4847.76 -4859.26 -4860.54 -4864.47 -4859.52 -4853.86 -4854.54 -4847.18 -4838.69 -4832.41 -4823.95 -4814.46 -4816.98 -4806.94 -4806.62 -4804.50 -4803.95 -4804.56 -4727.04 -4463.95 -3132.18 -2684.04 -1917.99 -1311.45 -1110.30 -976.14 -845.70 -840.73 -775.22 -642.53 -558.51 -576.87 -582.73 -789.77 -509.61 -514.64 -418.81 -372.72 -329.39 -353.70 -334.80 -323.88 -295.65 -269.22 -238.54 -209.40 -197.69 -196.15 -181.59 -158.35 -152.70 -137.22 -121.38 -135.72 -143.10 -153.14 -148.29 -154.95 -155.06 -148.62 -140.62 -145.59 -139.83 -131.06 -130.12 -119.84 -115.10 -112.67 -112.20 -105.12 -111.58 -123.99 -164.10 -227.46 -326.06 -894.86 -1482.43 -2548.18 -3369.84 -3236.09 -1793.25 -621.23 -9.82 41.64 68.30 66.46 53.74 62.92 57.64 50.93 48.24 40.61 37.39 31.32 28.46 23.52 15.58 9.06 -6.64 -892.60 -1842.09 -2364.98 -2676.86 -2964.29 -3300.10 -3688.54 -4091.43 -4347.74 -4372.56 -4382.28 -4384.74 -4383.19 -4386.26 -4386.26 -4386.05 -4385.43 -4382.49 -4377.23 -4374.23 -4367.26 -4356.34 -4353.67 -4351.35 -4351.41
-4785.45 -4785.40 -4800.18 -4796.64 -4810.07 -4808.76 -4818.04 -4818.74 -4824.26 -4827.22 -4837.26 -4843.35 -4847.48 -4853.65 -4857.90 -4859.47 -4871.25 -4874.05 -4880.09 -4880.42 -4882.56 -4884.99 -4879.91 -4874.62 -4861.21 -4857.91 -4852.72 -4851.55 -4844.32 -4834.96 -4836.19 -4833.42 -4832.57 -4823.22 -4824.66 -4738.49 -4616.95 -4084.39 -2879.69 -2242.10 -1673.78 -1308.18 -1139.22 -882.15 -834.32 -765.98 -725.06 -772.93 -830.37 -941.24 -1041.47 -1093.31 -868.81 -566.83 -475.73 -477.49 -415.89 -380.03 -350.81 -308.87 -298.82 -272.13 -258.48 -248.15 -241.65 -224.04 -193.95 -196.70 -182.61 -177.57 -159.45 -174.00 -168.20 -168.25 -165.23 -162.59 -162.52 -160.57 -155.15 -149.33 -144.57 -136.27 -125.01 -116.62 -110.94 -106.06 -104.41 -86.82 -89.82 -112.56 -186.58 -187.74 -197.25 -278.44 -771.22 -381.29 -441.68 -57.45 14.95 41.54 91.06 105.53 107.54 101.68 102.13 90.71 69.13 57.59 41.03 34.26 25.49 22.42 19.31 11.65 4.95 -405.52 -1404.19 -2515.83 -2810.00 -3245.70 -3693.09 -3803.48 -4040.05 -4290.88 -4366.04 -4387.86 -4388.68 -4392.25 -4392.50 -4394.87 -4402.94 -4402.41 -4399.59 -4393.36 -4394.12 -4385.47 -4378.33 -4366.65 -4362.32 -4358.28 -4358.34
-4811.18 -4814.78 -4822.95 -4829.85 -4834.99 -4838.91 -4837.93 -4847.82 -4851.87 -4856.50 -4869.21 -4865.89 -4876.05 -4877.99 -4890.49 -4889.11 -4892.00 -4895.83 -4909.24 -4917.05 -4912.31 -4909.89 -4907.15 -4901.42 -4899.17 -4888.22 -4880.69 -4874.40 -4868.20 -4863.12 -4862.82 -4860.42 -4853.32 -4854.26 -4846.63 -4854.19 -4744.65 -4333.61 -4051.20 -3005.88 -2103.13 -1740.27 -1528.53 -1180.79 -835.53 -828.94 -811.38 -817.46 -856.61 -924.05 -1098.10 -1101.75 -955.68 -778.98 -794.56 -688.38 -602.70 -445.34 -390.16 -330.54 -301.15 -277.19 -267.54 -251.38 -240.74 -234.04 -219.99 -211.69 -207.93 -201.51 -188.68 -181.62 -175.59 -170.50 -165.29 -163.53 -162.91 -161.68 -158.77 -152.88 -144.71 -136.56 -130.25 -110.42 -99.26 -82.93 -83.37 -52.05 -45.83 -62.39 -66.66 -98.20 -115.51 -162.18 -159.40 -153.13 -125.17 25.91 78.20 105.87 168.86 142.95 158.67 156.44 117.16 108.40 83.09 67.46 50.30 32.05 17.34 13.71 9.50 0.99 -19.53 -344.16 -1928.89 -2930.80 -3297.27 -3774.24 -3875.15 -4068.38 -4298.01 -4340.13 -4385.14 -4391.62 -4397.34 -4399.58 -4406.67 -4413.52 -4415.29 -4414.96 -4413.65 -4408.63 -4405.34 -4399.04 -4390.22 -4377.03 -4369.67 -4363.86 -4363.92
-4840.28 -4844.40 -4849.32 -4857.69 -4862.73 -4873.43 -4879.42 -4884.34 -4889.57 -4893.42 -4893.48 -4900.70 -4898.22 -4908.78 -4906.54 -4917.28 -4924.40 -4932.07 -4932.46 -4935.12 -4935.09 -4939.21 -4933.50 -4925.53 -4927.41 -4925.63 -4910.61 -4911.10 -4892.87 -4890.46 -4890.89 -4887.58 -4890.32 -4886.08 -4890.92 -4871.60 -4843.15 -4571.31 -4327.69 -3959.57 -3199.57 -3088.42 -2403.71 -1962.97 -1711.72 -1027.01 -1006.49 -935.98 -971.12 -1037.41 -1146.13 -1094.99 -1021.73 -1014.92 -997.17 -845.83 -704.04 -506.58 -380.42 -340.47 -314.04 -283.75 -270.97 -250.35 -239.42 -231.50 -220.40 -212.99 -206.93 -198.19 -190.42 -185.58 -179.39 -176.34 -165.72 -159.74 -159.63 -157.32 -156.79 -149.55 -133.29 -127.96 -124.39 -98.59 -64.18 -58.74 -45.80 -36.57 -29.18 -26.55 -18.72 -12.21 -30.18 -56.85 -57.88 -20.97 28.74 103.58 119.24 181.30 276.47 248.64 222.63 198.47 157.71 108.68 82.02 68.90 48.11 35.20 10.26 1.33 -13.79 -34.52 -176.58 -527.56 -1080.26 -3176.81 -3602.45 -3836.35 -4091.29 -4260.53 -4311.84 -4380.62 -4392.92 -4400.83 -4406.84 -4417.49 -4422.57 -4424.42 -4433.60 -4431.05 -4431.54 -4426.75 -4416.92 -4408.51 -4397.64 -4380.74 -4376.77 -4367.57 -4367.63
-4872.70 -4872.66 -4885.60 -4882.05 -4887.32 -4891.76 -4910.12 -4917.16 -4927.10 -4927.60 -4930.36 -4935.62 -4951.43 -4946.12 -4961.44 -4956.63 -4956.81 -4958.05 -4972.51 -4968.29 -4972.86 -4970.04 -4970.85 -4967.41 -4954.62 -4953.62 -4946.12 -4943.27 -4930.03 -4933.58 -4918.38 -4925.40 -4912.56 -4915.47 -4899.21 -4893.79 -4895.64 -4877.25 -4743.89 -4603.46 -4569.10 -3843.39 -3644.26 -3365.26 -2438.51 -1799.15 -1344.57 -1144.88 -1051.71 -1111.37 -1151.29 -1139.28 -1097.79 -1027.51 -1025.69 -922.37 -821.39 -561.82 -404.79 -364.36 -326.76 -293.33 -268.55 -249.81 -237.78 -230.10 -219.77 -214.94 -206.16 -198.87 -193.23 -188.20 -179.30 -175.42 -160.20 -153.98 -148.06 -149.98 -143.25 -132.15 -124.36 -112.97 -100.98 -81.24 -47.47 -32.92 -25.55 -16.53 -11.90 -5.17 -5.89 -0.73 -8.28 -6.41 26.28 87.25 114.04 203.49 219.04 321.65 383.57 312.57 241.01 186.73 159.04 127.57 99.64 61.59 45.95 22.47 -6.08 -27.50 -59.81 -55.31 -394.07 -2100.59 -2745.93 -3376.15 -3831.60 -3991.13 -4219.15 -4321.09 -4369.64 -4383.32 -4400.78 -4417.71 -4422.15 -4431.05 -4435.20 -4446.30 -4445.52 -4443.98 -4443.86 -4440.40 -4431.63 -4416.59 -4406.62 -4388.00 -4383.75 -4368.03 -4368.10
-4908.14 -4908.11 -4912.66 -4919.65 -4933.38 -4944.79 -4947.91 -4955.97 -4949.06 -4955.63 -4968.90 -4979.51 -4968.16 -4972.12 -4988.50 -4989.57 -4991.91 -5000.45 -4999.16 -5009.23 -5014.61 -5014.81 -5007.97 -4995.55 -5001.93 -4981.89 -4983.55 -4975.92 -4970.41 -4964.29 -4960.12 -4953.42 -4958.29 -4951.75 -4940.75 -4929.88 -4931.86 -4904.10 -4854.36 -4838.43 -4694.55 -4531.21 -4319.73 -4132.87 -3521.77 -2566.16 -1772.55 -1608.65 -1426.50 -1308.27 -1261.23 -1225.80 -1192.95 -1152.56 -1109.70 -1044.95 -847.40 -637.42 -439.93 -377.09 -313.26 -290.59 -261.49 -251.19 -236.59 -228.99 -219.56 -211.06 -205.64 -200.27 -195.37 -187.13 -180.80 -171.25 -160.07 -126.44 -122.11 -125.15 -122.08 -118.02 -95.20 -81.35 -63.68 -34.87 -29.65 -16.81 -15.49 3.64 5.52 4.05 17.76 14.21 1.55 17.57 74.31 108.35 157.70 372.74 367.20 441.26 441.31 268.76 215.01 189.00 164.92 109.15 86.86 73.34 48.68 26.28 -11.82 -37.40 -73.55 -161.87 -969.93 -2720.53 -3471.16 -3560.43 -3881.51 -4091.64 -4258.91 -4348.58 -4379.52 -4395.86 -4417.66 -4428.92 -4441.29 -4453.14 -4460.59 -4459.98 -4461.29 -4456.39 -4454.95 -4451.71 -4435.76 -4425.62 -4408.70 -4394.34 -4379.87 -4366.62 -4364.30
-4946.08 -4946.05 -4964.40 -4982.29 -4981.20 -4978.33 -4994.60 -4999.22 -4994.96 -5003.94 -5005.97 -5009.64 -5020.45 -5036.16 -5041.56 -5039.33 -5047.50 -5043.93 -5050.14 -5042.14 -5043.02 -5044.69 -5040.67 -5037.89 -5028.93 -5023.28 -5035.05 -5037.12 -5021.47 -5015.00 -5010.21 -5007.24 -4997.53 -4992.29 -4979.27 -4962.43 -4969.03 -4925.81 -4904.52 -4861.71 -4743.46 -4632.64 -4449.57 -4492.26 -4332.77 -3608.36 -3116.58 -2449.49 -2041.55 -1746.69 -1503.74 -1400.70 -1551.63 -1239.35 -1147.60 -1069.73 -845.39 -657.74 -560.44 -397.28 -323.23 -279.31 -261.35 -246.84 -235.35 -225.38 -220.00 -210.49 -202.57 -199.37 -195.36 -185.84 -173.05 -158.12 -153.30 -118.08 -106.47 -104.36 -97.57 -86.06 -65.68 -40.54 -29.69 -17.08 -10.81 -8.52 -2.79 9.93 14.29 30.09 63.28 74.31 80.35 69.56 101.19 168.65 262.77 438.38 498.92 409.56 311.20 220.92 180.67 151.96 125.06 99.94 82.75 55.99 39.37 17.49 -31.99 -56.33 -135.66 -964.04 -2172.05 -3083.78 -3573.27 -3952.19 -4086.57 -4251.03 -4328.24 -4350.62 -4384.33 -4415.18 -4428.27 -4442.78 -4465.28 -4471.18 -4476.72 -4478.28 -4476.82 -4469.79 -4461.21 -4456.12 -4441.52 -4425.49 -4404.50 -4392.82 -4377.85 -4355.33 -4355.40
-4985.92 -4991.68 -4998.94 -5010.67 -5017.81 -5029.02 -5039.90 -5036.22 -5044.58 -5044.47 -5068.21 -5073.68 -5074.69 -5070.28 -5073.53 -5073.41 -5081.32 -5077.91 -5077.69 -5087.22 -5091.61 -5097.00 -5089.41 -5091.80 -5070.21 -5070.55 -5073.55 -5070.75 -5056.64 -5052.02 -5035.44 -5041.66 -5030.56 -5021.92 -5026.79 -5016.71 -5011.85 -4984.23 -4908.16 -4866.38 -4799.31 -4670.51 -4555.87 -4447.98 -4270.29 -4160.61 -3689.89 -3415.65 -3029.62 -2614.23 -2217.14 -2051.40 -1833.98 -1457.43 -1328.55 -1242.80 -1094.91 -960.10 -680.58 -503.66 -340.42 -290.70 -265.50 -242.50 -232.03 -226.74 -220.51 -210.38 -205.77 -193.33 -185.97 -182.50 -162.55 -143.21 -133.77 -115.07 -86.84 -83.74 -68.86 -60.28 -48.56 -33.89 -19.16 -10.73 -4.68 12.09 0.09 33.95 51.41 64.66 93.10 118.38 125.68 118.40 134.18 296.29 411.91 534.15 535.51 354.66 222.53 192.45 155.57 102.20 102.40 89.52 58.69 39.51 9.10 -11.16 -54.70 -117.28 -732.68 -1730.29 -2474.97 -3332.95 -3971.27 -4186.09 -4187.51 -4299.51 -4350.04 -4374.19 -4402.88 -4420.42 -4438.85 -4459.90 -4476.96 -4487.55 -4490.71 -4490.49 -4486.26 -4480.21 -4470.94 -4451.87 -4439.56 -4422.87 -4400.70 -4382.42 -4366.90 -4341.31 -4341.39
-5027.24 -5034.72 -5044.83 -5050.57 -5063.57 -5074.49 -5082.00 -5087.07 -5101.77 -5101.65 -5107.27 -5107.88 -5118.48 -5115.13 -5116.11 -5130.20 -5133.38 -5127.60 -5129.04 -5140.79 -5123.15 -5140.16 -5118.09 -5124.82 -5131.96 -5123.69 -5116.37 -5109.86 -5113.74 -5101.06 -5104.93 -5093.41 -5088.11 -5069.60 -5052.53 -5050.37 -5030.05 -4995.29 -4957.51 -4913.13 -4807.10 -4714.13 -4613.11 -4457.40 -4342.34 -4108.09 -3850.36 -3576.83 -3199.28 -2908.02 -2566.16 -2330.83 -1857.36 -1703.54 -1433.71 -1382.09 -1223.75 -1155.87 -814.95 -550.30 -418.16 -327.15 -276.22 -246.18 -230.02 -224.67 -214.91 -209.16 -207.54 -196.84 -171.33 -166.42 -142.34 -114.36 -107.16 -84.65 -71.79 -66.25 -59.60 -50.49 -36.01 -26.23 -19.36 -5.60 26.54 48.96 53.37 88.01 108.58 131.68 133.71 167.54 162.81 222.58 233.57 333.68 484.97 517.61 408.66 300.35 216.95 184.19 144.75 101.42 89.02 83.05 37.40 8.43 -2.55 -59.79 -92.49 -826.89 -1731.94 -2306.67 -2773.88 -3606.47 -4088.62 -4238.93 -4298.06 -4321.15 -4360.42 -4389.46 -4413.78 -4428.95 -4451.76 -4467.79 -4488.85 -4497.10 -4496.92 -4497.27 -4488.88 -4483.47 -4467.61 -4449.24 -4430.33 -4412.13 -4391.34 -4362.34 -4349.80 -4319.37 -4323.09
-5077.15 -5077.06 -5083.49 -5105.98 -5104.64 -5117.81 -5129.25 -5137.14 -5140.09 -5142.15 -5145.56 -5158.40 -5165.75 -5162.87 -5176.92 -5166.11 -5168.07 -5175.48 -5163.88 -5167.91 -5180.82 -5174.50 -5192.23 -5175.26 -5172.90 -5164.66 -5161.33 -5169.57 -5156.92 -5140.95 -5137.89 -5114.80 -5119.28 -5123.97 -5107.36 -5093.39 -5073.36 -5033.05 -4982.26 -4942.35 -4856.57 -4750.72 -4639.32 -4487.33 -4303.96 -4010.16 -3851.87 -3556.71 -3283.47 -3132.35 -2865.08 -2593.10 -2204.62 -1802.10 -1531.86 -1478.86 -1318.25 -1111.33 -772.76 -599.42 -454.15 -367.85 -280.48 -244.83 -222.14 -220.23 -211.00 -204.13 -199.65 -195.20 -152.87 -139.39 -117.53 -97.45 -88.86 -73.97 -52.91 -52.08 -41.63 -32.07 -25.75 -19.07 -11.96 5.30 47.49 76.86 98.32 128.66 141.28 147.26 172.43 197.58 225.05 337.40 347.17 475.40 641.79 505.19 268.56 255.71 199.28 143.91 115.21 93.65 49.04 48.90 27.75 -10.74 -127.78 -507.95 -997.61 -1640.42 -2220.22 -2758.76 -3058.75 -3770.46 -4153.96 -4264.11 -4322.39 -4350.64 -4372.98 -4405.25 -4428.77 -4444.95 -4469.42 -4486.23 -4494.04 -4501.80 -4501.39 -4499.17 -4488.47 -4478.19 -4464.92 -4442.50 -4417.53 -4400.42 -4370.67 -4348.53 -4325.71 -4303.51 -4296.50
-5119.62 -5119.52 -5136.11 -5147.45 -5137.91 -5174.52 -5182.64 -5178.86 -5196.58 -5191.51 -5196.09 -5207.85 -5211.70 -5210.92 -5218.49 -5217.84 -5229.22 -5221.94 -5211.14 -5228.71 -5225.16 -5228.99 -5227.46 -5230.86 -5225.68 -5212.75 -5212.03 -5206.15 -5203.87 -5197.77 -5184.67 -5185.86 -5175.63 -5164.27 -5147.12 -5137.33 -5101.24 -5090.09 -5057.74 -4989.96 -4955.16 -4824.54 -4660.95 -4409.24 -4272.77 -3948.99 -3797.47 -3559.13 -3317.01 -3119.54 -2814.66 -2628.15 -2283.52 -2023.39 -1512.87 -1417.33 -1259.94 -1020.99 -860.75 -661.59 -485.53 -381.24 -317.83 -253.82 -198.06 -197.28 -188.75 -157.69 -156.77 -141.68 -112.62 -82.00 -80.95 -71.32 -63.19 -54.79 -46.05 -36.24 -32.00 -25.83 -20.38 -11.70 33.05 40.01 63.44 86.05 134.63 154.15 149.04 235.85 285.83 339.63 487.08 826.95 764.42 863.16 703.22 498.54 270.69 157.16 164.91 91.77 80.48 60.72 36.12 29.37 -84.05 -172.00 -220.61 -1201.29 -1713.84 -2338.33 -2563.58 -2971.28 -3440.00 -3733.15 -4282.11 -4300.51 -4339.39 -4367.16 -4391.53 -4409.89 -4435.74 -4462.18 -4483.20 -4494.75 -4501.33 -4502.42 -4500.19 -4496.79 -4482.69 -4469.55 -4447.92 -4424.92 -4397.05 -4375.78 -4354.08 -4318.51 -4302.82 -4273.48 -4270.36
-5161.70 -5161.60 -5184.71 -5176.87 -5195.81 -5213.41 -5222.13 -5228.53 -5231.31 -5241.44 -5252.60 -5260.72 -5244.90 -5259.86 -5256.78 -5260.92 -5257.30 -5259.57 -5272.81 -5269.95 -5266.60 -5265.11 -5272.38 -5260.39 -5263.88 -5259.16 -5259.48 -5254.59 -5242.59 -5246.88 -5232.80 -5231.41 -5229.10 -5217.35 -5202.08 -5182.09 -5160.31 -5137.52 -5091.48 -5054.07 -5007.68 -4934.17 -4751.78 -4550.29 -4234.27 -4014.78 -3827.25 -3663.35 -3365.61 -3162.18 -2819.51 -2580.87 -2395.36 -1995.03 -1737.84 -1530.36 -1341.05 -1088.54 -897.70 -723.16 -510.56 -437.69 -336.17 -283.80 -228.18 -103.55 -119.99 -105.42 -69.62 -46.96 -58.81 -63.13 -45.15 -42.39 -34.54 -42.22 -34.03 -32.98 -26.87 -18.82 -14.39 -9.87 40.85 97.39 104.70 130.71 153.67 280.96 365.74 614.49 722.47 903.49 1155.01 1688.30 1738.57 1330.34 880.63 753.56 388.28 189.80 114.70 64.13 56.90 14.08 -19.53 -20.76 -450.15 -543.52 -981.63 -1708.44 -2162.86 -2889.98 -2913.26 -3488.75 -3784.53 -4001.52 -4292.61 -4335.36 -4347.83 -4380.57 -4405.65 -4421.65 -4451.42 -4472.52 -4486.99 -4498.76 -4500.39 -4499.60 -4491.39 -4485.48 -4466.81 -4452.32 -4433.77 -4411.98 -4377.52 -4351.52 -4327.56 -4296.02 -4274.39 -4251.48 -4242.54
-5202.30 -5200.33 -5213.47 -5225.84 -5228.92 -5241.09 -5252.24 -5270.71 -5272.93 -5280.46 -5285.56 -5291.41 -5294.35 -5306.05 -5303.54 -5308.57 -5307.85 -5310.16 -5306.47 -5301.07 -5313.23 -5316.33 -5314.73 -5303.68 -5294.60 -5304.20 -5303.65 -5296.56 -5290.28 -5281.64 -5281.77 -5263.16 -5261.22 -5245.09 -5232.59 -5216.13 -5204.34 -5172.95 -5136.33 -5113.98 -5066.26 -4981.41 -4871.06 -4606.32 -4386.91 -4106.00 -3984.83 -3632.63 -3309.92 -2978.57 -2801.74 -2535.56 -2381.69 -2091.38 -1931.97 -1672.19 -1409.68 -1176.99 -993.10 -757.46 -648.27 -535.40 -373.92 -277.10 -193.35 -65.01 -26.42 -23.04 14.93 26.01 15.35 13.56 -18.02 -21.66 -16.56 -20.99 -23.84 -22.99 -14.61 -11.45 11.00 18.87 87.99 123.70 140.98 201.94 341.74 513.00 1006.82 1296.75 1481.90 1974.65 1844.54 1968.69 1763.39 896.54 860.56 761.39 417.41 159.45 26.95 -3.49 -8.33 -26.57 -59.49 -328.78 -1167.88 -2060.69 -2269.70 -2287.14 -3117.99 -3521.65 -3635.48 -3994.73 -4031.26 -4182.66 -4291.96 -4339.35 -4365.62 -4379.37 -4414.62 -4430.47 -4454.22 -4471.71 -4489.31 -4493.44 -4492.67 -4490.28 -4481.79 -4470.86 -4455.09 -4435.78 -4407.78 -4385.35 -4355.30 -4329.05 -4293.55 -4270.33 -4253.26 -4214.15 -4214.19
-5240.10 -5238.76 -5251.36 -5268.85 -5278.46 -5284.64 -5302.11 -5308.40 -5314.07 -5320.32 -5317.01 -5326.35 -5332.53 -5334.40 -5333.81 -5341.40 -5334.99 -5340.34 -5344.26 -5341.67 -5345.71 -5337.57 -5347.31 -5337.54 -5342.73 -5343.59 -5333.00 -5327.98 -5331.31 -5321.36 -5317.36 -5313.25 -5297.05 -5285.46 -5260.58 -5251.75 -5237.55 -5209.84 -5173.62 -5144.86 -5111.43 -5060.14 -4953.15 -4750.08 -4677.14 -4413.03 -4006.34 -3767.83 -3498.47 -3152.85 -2821.20 -2515.65 -2307.41 -2139.31 -1922.19 -1683.33 -1420.44 -1238.50 -953.74 -871.82 -717.22 -520.20 -339.17 -247.03 -126.51 -5.34 51.93 32.44 59.56 62.52 69.24 72.77 52.40 17.68 3.25 -11.31 -7.81 -9.25 22.34 33.40 65.06 69.93 167.51 175.81 162.64 220.22 823.29 1094.32 1797.44 2270.20 2301.47 2003.89 1614.69 977.16 1065.79 656.66 554.92 346.73 143.19 62.19 -8.75 -40.79 -160.19 -422.50 -990.06 -1935.73 -2565.58 -2696.96 -3044.22 -3219.19 -3666.79 -3924.68 -4070.48 -4129.62 -4273.03 -4325.66 -4344.31 -4360.79 -4381.18 -4399.40 -4424.54 -4445.83 -4463.73 -4479.55 -4486.59 -4487.66 -4486.48 -4479.04 -4469.85 -4454.53 -4437.54 -4410.70 -4389.58 -4353.44 -4327.89 -4299.10 -4262.63 -4237.90 -4214.71 -4186.49 -4186.53
-5274.20 -5273.75 -5286.23 -5299.13 -5304.22 -5325.42 -5327.71 -5328.55 -5338.81 -5345.98 -5355.34 -5358.98 -5360.55 -5358.36 -5360.07 -5361.54 -5368.96 -5371.19 -5373.39 -5372.81 -5374.59 -5369.46 -5366.16 -5362.31 -5363.94 -5363.89 -5358.64 -5357.74 -5356.40 -5346.42 -5340.10 -5329.94 -5319.67 -5308.29 -5289.14 -5264.92 -5251.09 -5223.84 -5211.41 -5207.73 -5145.52 -5093.67 -5023.75 -4837.79 -4674.81 -4343.46 -3991.63 -3712.83 -3459.38 -3057.41 -2802.36 -2475.20 -2358.97 -2136.39 -1927.59 -1761.01 -1539.46 -1276.14 -1049.37 -974.89 -825.96 -671.95 -607.56 -396.05 -145.87 -12.01 82.55 87.14 94.71 104.91 106.76 107.78 91.86 85.02 69.60 70.37 40.25 33.33 71.57 76.91 109.61 430.34 513.08 344.31 600.63 1015.54 1484.23 1664.05 2005.47 2128.79 1728.53 1173.18 817.84 567.23 381.78 395.50 196.89 132.76 9.56 -30.06 -570.09 -304.85 -289.97 -2085.59 -2649.08 -3602.53 -3738.02 -3418.69 -3736.96 -3717.86 -3901.23 -4179.81 -4278.22 -4287.62 -4311.78 -4340.95 -4356.41 -4375.19 -4389.76 -4418.25 -4438.79 -4452.78 -4468.33 -4476.99 -4474.79 -4479.28 -4473.95 -4464.17 -4450.80 -4436.63 -4410.74 -4395.40 -4365.23 -4329.51 -4304.68 -4269.57 -4240.87 -4216.00 -4188.82 -4160.77 -4160.81
-5303.82 -5303.74 -5320.52 -5327.52 -5333.54 -5346.14 -5345.37 -5349.03 -5362.27 -5364.24 -5367.63 -5372.61 -5375.06 -5378.87 -5383.02 -5384.72 -5388.14 -5388.33 -5391.88 -5390.47 -5389.15 -5388.56 -5384.08 -5390.16 -5382.24 -5378.56 -5375.74 -5372.87 -5372.66 -5366.10 -5354.15 -5347.54 -5339.65 -5313.36 -5304.22 -5286.41 -5271.01 -5254.04 -5242.14 -5227.16 -5206.19 -5144.38 -5056.19 -4862.49 -4660.75 -4414.81 -4160.56 -3753.51 -3369.28 -2954.94 -2662.60 -2467.28 -2362.87 -2184.24 -1996.77 -1762.97 -1598.08 -1300.18 -1154.54 -1057.24 -970.19 -873.65 -768.86 -477.60 -61.07 44.61 84.82 100.21 110.15 131.37 121.94 117.37 119.43 122.71 195.95 170.96 137.04 183.11 330.36 393.01 624.60 1239.23 1519.90 1354.43 1262.04 1102.53 852.55 1123.59 1167.07 1124.62 823.18 626.56 408.68 255.09 234.28 41.42 2.59 -74.68 -359.68 -1375.53 -2865.89 -2560.69 -1891.99 -3275.56 -4089.65 -4136.70 -4011.29 -3878.31 -3951.11 -4073.95 -4143.66 -4196.26 -4307.85 -4333.70 -4350.81 -4358.45 -4378.76 -4396.27 -4413.54 -4430.28 -4456.56 -4468.30 -4471.33 -4472.24 -4468.73 -4466.40 -4453.86 -4453.60 -4430.27 -4417.96 -4395.72 -4369.86 -4344.93 -4303.96 -4279.10 -4249.23 -4227.88 -4193.49 -4161.18 -4138.23 -4138.28
-5328.69 -5328.61 -5340.98 -5347.26 -5352.08 -5358.04 -5366.19 -5367.49 -5375.70 -5379.70 -5382.00 -5387.21 -5391.28 -5392.22 -5393.84 -5397.61 -5401.39 -5400.27 -5400.27 -5401.53 -5400.09 -5400.23 -5398.41 -5395.84 -5391.52 -5389.27 -5384.55 -5384.18 -5381.78 -5371.03 -5361.38 -5354.04 -5344.01 -5326.28 -5312.75 -5293.47 -5283.23 -5263.71 -5260.75 -5245.33 -5237.97 -5197.98 -5122.26 -4952.45 -4830.85 -4687.73 -4410.00 -4127.70 -3536.79 -2966.76 -2633.17 -2384.32 -2243.44 -2157.68 -2019.98 -1891.55 -1703.16 -1410.79 -1224.86 -1107.73 -1053.69 -839.11 -386.83 -179.10 -35.92 58.94 92.64 115.09 150.47 167.76 198.44 260.50 503.33 574.94 503.66 622.14 494.24 751.54 1054.60 1048.82 1244.45 1438.81 1665.86 1349.81 709.12 758.36 566.12 587.70 582.32 409.51 581.73 626.81 406.18 159.41 67.87 -4.50 -62.65 -298.44 -809.68 -2644.86 -4505.89 -4211.72 -4298.85 -4341.42 -4144.16 -4166.68 -4132.47 -4204.25 -4209.04 -4278.99 -4299.51 -4311.32 -4336.93 -4356.63 -4365.39 -4374.15 -4393.73 -4405.80 -4428.54 -4452.54 -4472.14 -4476.67 -4474.41 -4467.79 -4457.55 -4451.80 -4443.54 -4432.63 -4413.23 -4401.06 -4364.31 -4348.28 -4319.65 -4286.56 -4257.22 -4230.65 -4201.65 -4170.62 -4150.09 -4126.04 -4119.86
-5349.01 -5348.93 -5359.95 -5364.76 -5370.41 -5373.30 -5376.86 -5378.47 -5384.83 -5387.58 -5390.78 -5392.97 -5397.70 -5398.98 -5403.42 -5407.79 -5406.97 -5409.63 -5409.82 -5408.59 -5408.00 -5406.17 -5403.33 -5402.25 -5396.72 -5393.20 -5391.70 -5389.62 -5382.78 -5374.83 -5364.68 -5357.24 -5347.24 -5331.42 -5312.55 -5299.35 -5287.50 -5278.16 -5260.47 -5253.82 -5237.56 -5201.77 -5162.13 -5096.22 -4996.40 -4880.46 -4656.62 -4178.20 -3846.18 -2983.88 -2749.75 -2292.92 -2189.74 -2111.89 -2015.35 -1940.28 -1684.45 -1518.97 -1386.94 -1165.80 -1006.73 -668.27 -271.23 -124.12 13.84 49.92 89.95 133.18 181.99 216.34 236.46 471.43 1131.84 1510.04 1508.74 1752.59 2081.93 1903.51 2036.23 1857.75 1702.13 1366.16 1347.17 678.92 399.14 480.75 392.81 441.23 504.94 293.29 444.69 493.19 325.34 79.62 -24.69 -165.94 -352.54 -402.96 -1527.27 -3935.59 -4580.87 -4426.47 -4437.44 -4359.24 -4240.10 -4211.17 -4239.40 -4287.40 -4315.86 -4323.92 -4338.99 -4353.68 -4366.83 -4373.06 -4383.71 -4394.78 -4422.69 -4433.31 -4453.23 -4467.83 -4475.53 -4476.46 -4471.34 -4457.70 -4443.42 -4433.84 -4425.48 -4412.40 -4403.22 -4377.46 -4360.68 -4333.29 -4301.63 -4272.54 -4244.05 -4211.87 -4191.20 -4148.38 -4132.08 -4105.89 -4105.95
-5364.68 -5364.46 -5369.65 -5374.02 -5377.03 -5379.38 -5382.93 -5385.40 -5388.05 -5390.43 -5393.98 -5397.36 -5400.70 -5403.73 -5407.55 -5409.86 -5411.34 -5413.20 -5414.68 -5413.72 -5413.46 -5409.50 -5407.10 -5403.85 -5399.09 -5394.95 -5391.28 -5389.75 -5381.43 -5372.71 -5363.73 -5352.85 -5344.11 -5330.15 -5316.77 -5304.95 -5288.13 -5277.03 -5264.32 -5253.32 -5236.29 -5208.54 -5173.90 -5124.85 -5057.62 -4935.33 -4674.33 -4376.73 -3599.11 -3031.47 -2539.04 -1886.52 -1842.64 -1910.47 -1966.47 -1888.58 -1763.12 -1624.15 -1505.27 -1285.47 -788.62 -448.50 -189.70 -65.89 -3.54 28.94 95.85 148.82 250.25 278.02 397.13 811.68 1498.45 1837.81 1877.20 1845.55 1970.87 1804.54 1782.45 1665.00 1185.32 757.84 399.87 394.46 421.64 487.92 348.10 271.79 271.99 142.40 262.41 271.24 48.44 -45.36 -62.62 -653.12 -922.66 -1703.62 -3103.52 -4163.69 -4501.40 -4190.40 -4247.85 -4269.61 -4277.35 -4288.96 -4301.62 -4333.03 -4348.94 -4357.28 -4367.79 -4376.65 -4392.49 -4397.44 -4404.25 -4406.50 -4433.51 -4463.53 -4471.56 -4472.77 -4469.07 -4468.34 -4461.77 -4449.27 -4434.08 -4427.32 -4415.28 -4403.05 -4386.48 -4372.24 -4345.78 -4308.40 -4280.60 -4257.02 -4228.46 -4202.00 -4181.73 -4145.30 -4124.07 -4097.01 -4097.07
-5375.90 -5375.83 -5379.91 -5381.63 -5382.94 -5384.41 -5385.36 -5387.16 -5389.18 -5392.42 -5394.32 -5397.98 -5402.10 -5405.58 -5408.41 -5411.60 -5414.91 -5416.74 -5416.82 -5417.40 -5416.01 -5414.02 -5409.14 -5403.93 -5399.17 -5393.98 -5390.38 -5385.04 -5372.30 -5367.55 -5360.13 -5348.91 -5338.52 -5329.39 -5314.45 -5304.42 -5289.38 -5275.67 -5264.60 -5250.60 -5234.92 -5208.02 -5170.73 -5129.79 -5048.98 -4976.51 -4673.21 -4404.92 -3616.83 -2587.21 -1966.86 -1450.12 -1413.23 -1703.22 -1901.63 -1780.67 -1750.60 -1663.19 -1622.99 -1296.94 -806.92 -264.23 -85.78 -21.83 19.39 61.19 130.04 185.17 298.11 344.58 339.62 514.15 826.99 752.44 972.59 954.76 848.79 821.31 913.69 487.80 596.66 465.79 362.70 272.76 427.94 516.02 499.00 461.09 266.36 84.63 139.49 62.09 -13.51 -373.51 -1433.32 -3537.65 -4284.60 -5125.01 -4576.15 -4394.60 -4311.14 -4192.36 -4255.07 -4286.22 -4290.51 -4324.49 -4340.87 -4360.86 -4373.39 -4379.30 -4387.67 -4406.19 -4416.01 -4422.82 -4427.56 -4437.52 -4457.64 -4482.86 -4486.96 -4479.86 -4469.97 -4462.49 -4455.04 -4435.63 -4419.37 -4407.96 -4402.77 -4390.52 -4375.92 -4354.88 -4325.12 -4302.64 -4268.76 -4242.11 -4223.68 -4197.56 -4175.97 -4142.33 -4118.13 -4093.25 -4093.32
-5383.31 -5383.24 -5384.76 -5384.82 -5385.16 -5385.30 -5385.69 -5386.94 -5388.15 -5392.10 -5394.72 -5397.77 -5402.03 -5406.29 -5411.03 -5413.71 -5417.28 -5419.68 -5420.64 -5420.41 -5418.51 -5417.62 -5412.06 -5407.02 -5399.73 -5393.61 -5388.48 -5381.28 -5370.68 -5361.20 -5352.88 -5346.48 -5336.23 -5329.25 -5318.21 -5299.45 -5288.88 -5276.17 -5265.41 -5249.13 -5232.90 -5201.84 -5180.98 -5076.44 -4985.31 -4713.14 -4247.37 -3528.80 -3027.49 -2204.75 -1496.73 -1298.54 -1246.15 -1337.49 -1464.21 -1596.08 -1567.60 -1600.34 -1633.80 -1300.82 -836.26 -389.93 -48.41 6.54 53.70 97.68 145.73 180.88 257.75 341.68 396.75 397.09 500.22 438.76 646.09 533.22 409.30 460.89 342.96 337.78 437.02 496.66 416.02 251.86 377.72 451.08 271.50 259.56 211.74 79.19 -13.19 -49.65 -72.72 -371.52 -2750.11 -4393.33 -4767.35 -4711.87 -4596.11 -4344.81 -4311.57 -4278.28 -4298.75 -4329.21 -4354.16 -4359.67 -4384.59 -4398.65 -4415.51 -4413.32 -4414.47 -4427.61 -4449.89 -4470.86 -4477.76 -4467.41 -4481.91 -4493.22 -4498.94 -4485.91 -4468.53 -4462.58 -4443.91 -4434.52 -4416.58 -4400.44 -4386.95 -4379.32 -4358.70 -4347.25 -4328.64 -4294.76 -4265.56 -4247.49 -4218.28 -4195.76 -4170.82 -4145.83 -4123.04 -4098.26 -4094.37
-5387.54 -5387.47 -5386.88 -5386.09 -5385.13 -5384.26 -5384.11 -5385.33 -5386.58 -5389.25 -5394.77 -5396.60 -5401.88 -5406.46 -5412.33 -5415.80 -5421.95 -5423.22 -5426.45 -5426.85 -5423.66 -5422.07 -5414.84 -5408.13 -5402.92 -5393.19 -5385.91 -5378.09 -5368.39 -5359.17 -5344.84 -5335.41 -5331.29 -5325.99 -5312.05 -5299.35 -5289.66 -5278.94 -5263.54 -5251.54 -5231.05 -5200.68 -5188.57 -5007.13 -4451.19 -3853.64 -3334.51 -2781.28 -1901.97 -1702.07 -1362.27 -1277.97 -1215.05 -1204.15 -1285.61 -1377.84 -1417.86 -1420.13 -1320.59 -1083.71 -995.78 -578.54 -4.68 10.73 75.15 129.11 176.54 229.83 257.04 320.37 367.26 451.44 481.63 384.52 445.80 494.65 371.61 379.83 327.21 321.01 449.50 423.52 439.64 217.70 173.99 165.67 51.57 20.13 1.11 -81.36 -57.18 -102.30 -175.08 -413.47 -2588.27 -4155.69 -4444.85 -4392.78 -4298.16 -4303.72 -4304.66 -4306.46 -4345.92 -4370.72 -4398.02 -4412.36 -4431.49 -4455.94 -4449.09 -4448.48 -4469.94 -4484.71 -4473.74 -4490.70 -4499.55 -4490.96 -4502.08 -4506.47 -4496.22 -4483.11 -4467.93 -4464.62 -4450.31 -4424.59 -4413.88 -4401.40 -4383.43 -4375.80 -4363.93 -4346.72 -4326.52 -4280.85 -4267.40 -4245.12 -4216.73 -4191.79 -4176.51 -4149.35 -4124.08 -4099.35 -4099.42
-5389.13 -5389.06 -5387.12 -5385.32 -5383.03 -5382.47 -5381.83 -5382.80 -5384.49 -5387.19 -5391.60 -5397.77 -5402.12 -5409.24 -5414.32 -5419.70 -5426.84 -5429.23 -5432.81 -5432.16 -5431.44 -5429.61 -5423.18 -5413.98 -5407.02 -5399.14 -5389.80 -5375.33 -5364.95 -5354.23 -5342.25 -5331.61 -5321.75 -5317.93 -5306.24 -5294.86 -5287.68 -5275.43 -5260.84 -5246.89 -5231.44 -5129.94 -4987.40 -4031.37 -3654.23 -3046.01 -2406.12 -1716.22 -1520.22 -1444.73 -1295.49 -1245.78 -1229.31 -1222.79 -1364.60 -1304.75 -1129.96 -1009.19 -933.54 -918.60 -918.15 -716.98 -105.94 24.19 150.61 351.14 328.60 376.07 340.75 396.08 397.91 449.35 479.55 419.81 360.90 517.32 441.88 357.71 322.81 226.59 363.55 276.86 249.94 197.58 103.56 42.62 -4.88 -20.46 -87.22 -212.65 -200.38 -855.88 -1598.64 -2619.94 -3863.46 -4289.08 -4347.18 -4296.55 -4291.69 -4311.32 -4337.82 -4351.11 -4374.27 -4416.38 -4433.66 -4466.27 -4478.40 -4488.36 -4495.02 -4510.99 -4506.91 -4522.42 -4520.87 -4530.06 -4527.34 -4522.24 -4526.44 -4514.50 -4500.48 -4486.11 -4471.28 -4459.41 -4442.87 -4431.00 -4417.96 -4401.90 -4387.60 -4382.00 -4372.43 -4344.71 -4316.80 -4286.27 -4269.29 -4249.10 -4226.14 -4199.75 -4176.91 -4160.40 -4136.18 -4110.11 -4107.50
-5388.67 -5388.29 -5385.06 -5382.00 -5380.04 -5378.35 -5378.37 -5379.07 -5381.60 -5386.66 -5392.59 -5397.16 -5404.29 -5410.37 -5418.65 -5424.34 -5430.88 -5436.95 -5441.75 -5443.14 -5441.75 -5437.22 -5429.60 -5423.07 -5410.93 -5404.79 -5392.26 -5376.94 -5359.79 -5351.79 -5340.33 -5328.48 -5319.62 -5313.50 -5308.44 -5294.62 -5283.80 -5273.16 -5266.11 -5258.38 -5247.33 -5160.28 -4604.05 -4093.23 -2776.81 -1945.55 -1556.86 -1476.54 -1376.55 -1306.70 -1244.03 -1247.34 -1341.30 -1645.53 -1635.38 -1645.19 -1195.89 -926.28 -869.81 -896.83 -881.76 -730.17 -196.74 89.69 513.10 1063.44 1140.25 679.21 565.07 478.56 495.62 626.73 593.19 421.52 303.66 481.43 490.15 325.57 169.22 171.52 192.35 127.03 143.44 100.28 50.69 -0.55 -34.10 -91.26 -296.06 -658.91 -1588.28 -2391.10 -2635.13 -4284.56 -4649.51 -4364.64 -4338.30 -4312.93 -4339.45 -4344.49 -4372.65 -4394.47 -4425.93 -4439.86 -4451.19 -4485.16 -4502.66 -4525.06 -4534.84 -4538.66 -4557.74 -4553.06 -4545.37 -4546.37 -4549.23 -4543.54 -4534.81 -4519.44 -4508.16 -4494.42 -4477.25 -4466.54 -4449.86 -4435.19 -4419.91 -4405.34 -4395.44 -4381.28 -4371.64 -4348.28 -4325.55 -4298.36 -4277.07 -4255.24 -4234.78 -4220.51 -4187.95 -4165.66 -4138.86 -4117.68 -4117.76
