-4746.59 -4748.78 -4759.79 -4778.37 -4793.82 -4810.29 -4834.47 -4854.32 -4917.86 -4975.40 -5010.35 -5027.08 -5049.26 -5070.49 -5077.79 -5081.82 -5085.89 -5092.93 -5094.29 -5101.12 -5105.65 -5107.38 -5109.30 -5110.80 -5111.14 -5111.92 -5112.13 -5112.59 -5112.69 -5113.57 -5115.35 -5118.11 -5121.44 -5124.66 -5128.77 -5136.44 -5144.30 -5150.41 -5162.78 -5174.90 -5185.13 -5200.06 -5207.93 -5225.20 -5236.81 -5250.69 -5264.96 -5267.54 -5272.08 -5276.81 -5278.53 -5279.34 -5278.92 -5275.98 -5271.67 -5266.83 -5262.93 -5257.34 -5254.25 -5251.98 -5247.23 -5248.11 -5248.74 -5251.80 -5253.43 -5254.82 -5254.84 -5253.61 -5250.70 -5242.76 -5232.67 -5204.96 -5136.46 -5046.64 -4892.86 -4827.26 -4721.64 -4686.91 -4404.32 -4153.52 -3425.12 -3046.30 -3003.60 -3935.11 -5016.57 -5238.04 -4876.29 -3237.77 -1363.43 -738.27 -616.83 -673.22 -642.51 -643.75 -290.10 32.60 37.99 56.23 66.05 65.43 62.86 47.61 40.48 31.43 20.33 -30.06 -104.63 -1457.14 -6224.29 -8841.06 -10192.54 -10681.16 -11038.87 -11052.34 -11060.90 -11080.76 -11098.05 -10871.12 -7854.01 -5386.25 -4628.25 -4473.15 -4442.55 -4455.80 -4463.57 -4478.55 -4484.61 -4499.71 -4506.57 -4519.02 -4527.57 -4529.87 -4528.19 -4531.44 -4532.39 -4526.15 -4516.18 -4505.90 -4480.71 -4465.08 -4465.14
-4750.80 -4750.74 -4764.12 -4780.62 -4800.09 -4812.60 -4829.84 -4838.44 -4879.53 -4914.28 -4957.96 -4976.46 -4994.78 -5047.81 -5083.02 -5089.44 -5091.08 -5093.58 -5102.73 -5107.50 -5111.50 -5112.06 -5116.58 -5115.92 -5115.92 -5115.99 -5115.80 -5115.57 -5114.98 -5115.10 -5116.50 -5116.58 -5119.06 -5122.40 -5126.84 -5132.19 -5142.22 -5151.44 -5163.98 -5172.90 -5185.10 -5202.03 -5214.89 -5227.82 -5243.90 -5257.56 -5266.05 -5278.01 -5279.24 -5281.53 -5282.65 -5282.15 -5280.41 -5275.81 -5271.23 -5266.40 -5259.45 -5254.68 -5251.72 -5247.60 -5245.43 -5244.92 -5245.52 -5249.74 -5252.10 -5254.44 -5254.51 -5253.85 -5250.39 -5236.77 -5217.46 -5169.69 -5128.29 -5078.32 -4961.38 -4672.57 -4637.82 -4490.91 -4365.10 -4161.04 -3926.69 -3726.06 -3229.29 -3582.60 -4319.06 -4881.53 -4419.60 -2486.81 -821.45 -308.76 -247.72 -262.56 -117.96 22.38 31.75 40.90 59.25 72.40 73.45 72.37 66.32 59.31 44.06 33.85 20.54 -22.90 -119.84 -1828.90 -4753.99 -8715.38 -10391.90 -10862.35 -11037.41 -11061.26 -11076.98 -11098.25 -11110.57 -10677.22 -7935.21 -5712.97 -4932.10 -4485.16 -4470.04 -4483.03 -4485.05 -4495.44 -4502.32 -4512.30 -4524.46 -4531.36 -4540.35 -4542.14 -4549.81 -4545.69 -4542.51 -4535.53 -4525.24 -4514.53 -4501.33 -4481.68 -4481.74
-4756.13 -4756.06 -4770.95 -4787.62 -4804.27 -4816.49 -4834.68 -4849.25 -4860.95 -4892.34 -4907.16 -4922.96 -4931.20 -5029.25 -5053.22 -5090.88 -5103.35 -5109.26 -5108.93 -5111.91 -5116.98 -5119.14 -5122.06 -5121.61 -5120.73 -5121.44 -5120.38 -5118.52 -5117.42 -5116.79 -5116.75 -5116.31 -5119.13 -5120.55 -5125.88 -5132.84 -5139.79 -5151.32 -5160.80 -5170.85 -5191.39 -5203.34 -5220.60 -5230.10 -5248.38 -5260.83 -5273.96 -5285.21 -5286.96 -5288.42 -5286.37 -5284.71 -5281.85 -5277.24 -5272.69 -5265.16 -5259.76 -5255.63 -5247.64 -5245.46 -5244.24 -5243.44 -5243.84 -5247.32 -5249.22 -5251.80 -5250.95 -5251.75 -5248.41 -5232.73 -5209.75 -5172.73 -5099.08 -5061.57 -4925.27 -4713.80 -4520.69 -4324.61 -4186.69 -4126.74 -3996.62 -3724.67 -3649.20 -3645.69 -3761.65 -3994.29 -4226.43 -1907.74 -603.49 -185.10 25.76 28.07 33.29 41.57 49.29 59.22 71.94 77.19 78.94 76.75 71.26 59.83 46.67 37.88 21.24 -52.71 -1217.71 -5092.72 -7953.12 -9971.43 -10536.09 -10918.32 -11048.57 -11081.47 -11090.57 -11097.85 -11110.38 -10728.99 -9280.17 -6425.42 -5011.84 -4533.55 -4491.93 -4497.18 -4501.86 -4508.01 -4519.32 -4517.81 -4535.84 -4540.11 -4544.91 -4551.63 -4553.12 -4552.01 -4547.75 -4545.39 -4534.25 -4522.42 -4509.96 -4493.92 -4493.99
-4762.96 -4762.90 -4776.77 -4794.62 -4804.76 -4823.31 -4841.09 -4855.03 -4869.96 -4880.08 -4890.01 -4889.65 -4902.89 -4945.71 -5018.88 -5065.04 -5103.11 -5115.01 -5119.51 -5117.99 -5121.69 -5125.23 -5125.79 -5128.55 -5127.53 -5126.90 -5123.40 -5123.03 -5120.65 -5119.69 -5118.38 -5117.59 -5118.73 -5120.77 -5126.16 -5133.01 -5140.40 -5148.92 -5161.32 -5174.74 -5189.96 -5203.21 -5222.58 -5237.56 -5249.77 -5266.33 -5279.48 -5291.47 -5293.55 -5293.75 -5294.60 -5291.24 -5285.35 -5279.37 -5274.68 -5266.34 -5258.96 -5253.18 -5248.46 -5246.10 -5243.70 -5242.88 -5244.43 -5245.07 -5247.38 -5247.77 -5246.81 -5245.49 -5242.83 -5224.39 -5197.67 -5129.94 -5037.72 -4946.50 -4872.12 -4680.83 -4430.75 -4243.24 -4057.56 -3966.10 -3777.90 -3702.77 -3708.47 -3719.21 -3733.59 -3598.10 -2910.89 -798.70 -9.75 -50.55 30.99 45.84 56.71 60.36 65.65 71.39 85.34 85.38 83.19 80.05 73.71 63.33 53.85 37.44 24.00 -75.15 -1516.05 -7182.79 -10348.16 -10110.73 -10852.83 -11041.31 -11053.74 -11089.29 -11099.24 -11106.61 -11124.55 -11102.12 -10431.89 -7034.79 -5094.75 -4610.41 -4511.29 -4505.35 -4511.86 -4520.10 -4523.88 -4531.91 -4537.45 -4543.55 -4548.47 -4553.06 -4554.12 -4553.59 -4549.60 -4545.10 -4536.61 -4525.71 -4516.30 -4501.18 -4501.25
-4771.06 -4773.79 -4787.59 -4798.26 -4813.77 -4830.26 -4842.98 -4861.35 -4875.09 -4884.79 -4899.48 -4900.46 -4910.55 -4924.69 -4975.75 -5014.09 -5055.24 -5114.44 -5125.06 -5123.29 -5125.56 -5131.51 -5132.94 -5133.11 -5133.58 -5131.85 -5129.31 -5125.70 -5122.75 -5122.22 -5121.33 -5118.89 -5120.29 -5123.70 -5127.41 -5134.36 -5140.83 -5150.94 -5161.90 -5177.31 -5192.24 -5209.85 -5225.51 -5240.93 -5254.47 -5267.94 -5286.84 -5292.42 -5297.70 -5302.15 -5302.59 -5300.38 -5289.72 -5284.31 -5275.80 -5268.51 -5261.20 -5256.66 -5249.85 -5246.92 -5243.74 -5243.73 -5244.41 -5244.44 -5242.50 -5243.81 -5243.98 -5241.86 -5234.12 -5218.31 -5192.76 -5101.52 -5008.85 -4860.40 -4700.40 -4509.68 -4359.60 -4173.94 -3795.35 -3478.84 -3385.76 -3435.99 -3297.50 -3342.57 -3527.08 -3419.80 -1455.73 -57.40 19.80 37.13 47.46 58.83 65.71 72.73 85.37 87.79 91.35 91.77 85.60 82.64 72.52 66.80 55.32 35.60 26.53 -36.88 -2016.56 -6994.24 -9534.02 -9736.71 -10285.27 -10927.28 -11056.49 -11084.12 -11085.82 -11097.37 -11109.82 -10871.48 -10119.46 -7521.12 -5274.84 -4596.35 -4526.43 -4517.97 -4523.64 -4529.56 -4535.00 -4536.02 -4541.80 -4545.08 -4547.98 -4548.24 -4550.11 -4548.92 -4546.22 -4539.39 -4533.01 -4523.14 -4515.68 -4503.69 -4503.76
-4780.36 -4780.30 -4791.06 -4806.06 -4822.65 -4837.09 -4849.24 -4862.87 -4876.62 -4890.87 -4901.80 -4910.60 -4918.75 -4925.45 -4942.99 -4976.82 -5039.36 -5100.54 -5127.89 -5133.36 -5131.61 -5134.89 -5139.08 -5140.20 -5140.32 -5136.73 -5133.69 -5130.25 -5128.84 -5126.59 -5126.81 -5125.83 -5124.63 -5127.90 -5132.04 -5137.22 -5148.51 -5155.05 -5166.64 -5181.28 -5196.45 -5211.76 -5229.60 -5242.66 -5259.15 -5270.48 -5291.66 -5300.72 -5308.06 -5306.53 -5308.91 -5304.44 -5296.86 -5285.05 -5279.54 -5268.58 -5262.24 -5256.27 -5252.92 -5247.52 -5245.68 -5242.69 -5241.31 -5238.67 -5239.88 -5243.17 -5240.84 -5237.67 -5233.54 -5207.24 -5173.03 -5101.23 -4926.60 -4851.15 -4565.99 -4286.33 -4085.82 -3724.27 -3420.85 -3057.07 -2453.38 -2535.50 -2577.97 -2511.14 -2867.96 -2227.37 -773.63 23.16 27.41 48.74 59.32 73.15 77.63 83.55 88.08 91.84 97.53 99.67 96.22 92.13 82.66 69.50 56.78 42.06 24.55 19.39 -622.26 -2537.69 -4531.93 -7869.77 -10253.63 -10841.68 -11037.59 -11060.42 -11066.13 -11099.17 -11097.77 -11099.59 -10520.68 -8297.89 -5600.31 -4698.76 -4516.82 -4517.57 -4530.33 -4533.80 -4538.34 -4538.13 -4539.77 -4541.62 -4543.08 -4541.78 -4539.69 -4536.87 -4534.48 -4526.59 -4524.49 -4517.20 -4510.93 -4502.36 -4501.46
-4790.90 -4793.62 -4804.64 -4815.83 -4830.08 -4847.05 -4856.40 -4872.60 -4882.47 -4895.60 -4904.57 -4914.10 -4923.11 -4931.36 -4939.50 -4940.32 -4968.90 -5036.76 -5103.08 -5136.61 -5140.22 -5141.78 -5144.99 -5144.74 -5145.15 -5145.31 -5141.97 -5139.07 -5135.63 -5132.94 -5131.37 -5130.09 -5132.19 -5134.38 -5137.58 -5143.56 -5150.49 -5162.78 -5176.72 -5187.11 -5202.58 -5217.31 -5230.80 -5251.29 -5265.95 -5278.28 -5292.86 -5307.73 -5314.74 -5317.07 -5311.81 -5311.44 -5305.23 -5295.64 -5289.07 -5273.10 -5266.00 -5260.29 -5256.65 -5250.59 -5246.57 -5243.67 -5240.17 -5236.60 -5232.17 -5237.60 -5230.91 -5228.60 -5226.83 -5204.28 -5146.13 -5049.75 -4932.05 -4738.81 -4513.59 -4182.91 -3909.96 -3657.87 -3169.80 -2304.74 -2074.49 -2311.34 -2264.41 -1869.57 -2140.63 -1172.50 -183.79 24.03 52.30 64.33 78.41 80.48 90.83 95.98 98.93 104.02 106.54 108.84 103.13 94.60 85.17 68.25 55.50 41.63 28.15 17.16 -45.13 -197.54 -2871.91 -8277.11 -9778.07 -10737.33 -10981.34 -11001.19 -11031.61 -11057.73 -11073.85 -11093.32 -10903.15 -8248.86 -5757.43 -4736.22 -4532.65 -4524.18 -4532.19 -4531.60 -4538.42 -4537.79 -4537.25 -4534.04 -4533.83 -4531.82 -4530.28 -4527.30 -4522.38 -4513.96 -4510.07 -4507.87 -4502.44 -4494.70 -4494.77
-4802.30 -4805.02 -4814.17 -4826.81 -4839.49 -4848.53 -4864.17 -4874.05 -4889.04 -4898.25 -4909.82 -4919.06 -4925.70 -4932.52 -4941.76 -4941.81 -4948.48 -5002.13 -5061.97 -5115.42 -5142.32 -5147.34 -5148.48 -5151.04 -5151.59 -5150.17 -5147.06 -5143.91 -5142.72 -5140.47 -5138.40 -5138.85 -5140.27 -5144.50 -5144.34 -5150.51 -5160.34 -5169.72 -5182.46 -5195.96 -5207.77 -5229.65 -5240.01 -5257.66 -5272.89 -5286.28 -5298.92 -5307.93 -5320.01 -5323.55 -5320.55 -5313.64 -5309.49 -5301.98 -5296.26 -5280.10 -5274.23 -5263.97 -5261.24 -5255.68 -5253.51 -5249.65 -5241.67 -5236.53 -5234.25 -5234.32 -5227.22 -5218.26 -5206.96 -5174.91 -5127.86 -4989.01 -4864.47 -4672.37 -4352.50 -3924.81 -3672.43 -3114.10 -2748.69 -2235.56 -1716.06 -1427.18 -1573.17 -1353.91 -1170.92 -455.24 -13.93 27.35 62.46 79.46 92.10 99.62 103.96 110.04 117.26 118.65 118.54 115.67 106.25 94.64 89.97 71.40 60.42 44.97 26.21 12.26 -22.95 -1306.90 -5658.81 -8640.83 -10553.76 -10700.80 -10852.41 -10933.16 -10996.25 -11027.90 -11039.86 -10992.68 -10753.54 -9506.74 -5870.66 -4770.15 -4533.81 -4528.90 -4535.87 -4519.84 -4535.45 -4535.54 -4531.49 -4525.26 -4524.81 -4516.32 -4512.37 -4508.78 -4504.75 -4501.98 -4498.59 -4492.64 -4489.66 -4484.42 -4484.49
-4814.37 -4814.31 -4822.49 -4833.82 -4848.81 -4858.43 -4871.27 -4880.26 -4894.08 -4899.18 -4912.49 -4922.23 -4927.88 -4936.97 -4942.80 -4946.50 -4947.85 -4975.78 -5010.59 -5078.33 -5144.64 -5154.70 -5155.38 -5154.86 -5156.53 -5156.36 -5155.66 -5153.72 -5150.00 -5150.10 -5148.59 -5146.16 -5148.16 -5149.40 -5155.02 -5160.76 -5172.42 -5178.04 -5195.75 -5203.44 -5213.20 -5234.45 -5243.87 -5264.98 -5277.32 -5293.81 -5302.09 -5315.77 -5325.01 -5327.47 -5327.60 -5321.69 -5317.48 -5309.37 -5293.06 -5293.02 -5284.51 -5276.26 -5270.15 -5264.67 -5258.52 -5254.89 -5245.65 -5236.80 -5230.94 -5228.88 -5223.64 -5207.42 -5192.24 -5155.64 -5105.41 -5023.28 -4818.99 -4614.78 -4187.95 -3833.98 -3119.65 -2818.06 -2252.33 -1763.35 -1458.30 -1244.57 -1069.19 -642.20 -581.09 -405.03 11.58 51.25 78.91 89.22 107.56 111.30 118.47 124.05 127.03 129.44 124.33 118.61 112.63 100.43 92.56 74.59 51.40 40.83 26.96 10.62 -9.35 -953.46 -6883.06 -9632.02 -10507.84 -10712.94 -10792.63 -10894.56 -10954.42 -10968.26 -10971.96 -10967.29 -10787.98 -9239.48 -6796.60 -4827.41 -4582.22 -4521.24 -4525.19 -4523.63 -4529.26 -4526.14 -4522.77 -4521.24 -4510.94 -4505.73 -4504.48 -4496.19 -4489.00 -4479.06 -4477.76 -4475.17 -4473.86 -4470.74 -4471.68
-4826.86 -4826.81 -4839.31 -4845.86 -4854.78 -4863.12 -4878.02 -4887.18 -4897.82 -4905.97 -4917.53 -4922.80 -4930.44 -4936.15 -4946.12 -4952.12 -4954.76 -4965.20 -4981.26 -5046.21 -5117.03 -5150.42 -5160.28 -5160.60 -5161.00 -5161.73 -5164.57 -5163.62 -5161.27 -5156.90 -5154.59 -5154.92 -5157.78 -5160.79 -5163.17 -5172.13 -5179.19 -5193.15 -5201.11 -5215.16 -5227.43 -5245.01 -5257.88 -5273.74 -5286.52 -5298.60 -5310.97 -5321.28 -5329.51 -5333.57 -5339.12 -5332.83 -5327.70 -5315.34 -5299.70 -5299.71 -5293.94 -5286.58 -5276.98 -5271.47 -5265.05 -5258.92 -5248.57 -5238.33 -5228.72 -5223.97 -5216.99 -5205.22 -5180.31 -5143.54 -5084.08 -5013.51 -4858.28 -4593.09 -4322.31 -3927.09 -3289.60 -2914.79 -2138.62 -1743.74 -1202.89 -631.90 -327.98 -150.26 -204.51 3.74 23.54 68.64 110.26 110.05 119.30 131.05 131.72 137.83 141.01 140.76 139.57 124.92 118.78 110.02 87.67 70.21 53.55 32.13 22.51 12.84 -14.07 -1006.01 -5125.27 -10410.91 -10514.51 -10727.08 -10780.16 -10793.20 -10874.91 -10856.43 -10836.39 -10908.47 -10868.51 -9510.59 -6266.28 -4814.31 -4572.22 -4512.58 -4524.97 -4530.69 -4522.92 -4518.13 -4520.05 -4510.19 -4500.57 -4492.28 -4487.19 -4479.93 -4465.85 -4470.92 -4462.55 -4459.35 -4458.51 -4456.66 -4456.74
-4839.29 -4842.27 -4848.96 -4856.34 -4864.30 -4872.46 -4887.05 -4894.53 -4901.51 -4912.62 -4919.42 -4925.79 -4932.68 -4939.94 -4947.02 -4952.37 -4961.33 -4965.44 -4975.68 -5007.49 -5072.29 -5142.94 -5158.36 -5164.35 -5169.08 -5170.83 -5174.03 -5168.10 -5167.31 -5163.78 -5166.63 -5167.03 -5167.60 -5170.30 -5178.93 -5183.43 -5192.27 -5202.46 -5215.15 -5229.61 -5247.41 -5258.87 -5267.97 -5284.77 -5300.17 -5310.51 -5321.38 -5328.76 -5336.96 -5344.69 -5345.31 -5342.71 -5334.99 -5323.39 -5311.72 -5312.46 -5300.73 -5296.43 -5284.82 -5278.30 -5269.75 -5258.15 -5247.30 -5236.83 -5226.51 -5223.48 -5218.43 -5210.62 -5168.36 -5127.73 -5048.19 -4994.72 -4808.63 -4612.81 -4278.51 -3849.85 -3295.24 -2706.08 -2275.83 -1699.86 -718.32 -349.67 -147.61 -43.73 -11.77 24.55 64.58 86.38 125.67 134.32 148.74 148.89 156.36 158.97 156.85 151.70 146.42 140.88 127.35 115.18 91.95 72.19 48.43 33.31 22.76 11.14 -11.90 -1161.23 -5151.64 -10551.98 -10651.21 -10698.44 -10723.74 -10703.96 -10751.11 -10704.78 -10534.80 -10604.26 -10885.28 -9619.96 -6659.68 -4789.47 -4549.73 -4504.57 -4533.41 -4538.41 -4520.57 -4513.78 -4510.99 -4501.08 -4491.07 -4483.66 -4472.31 -4461.02 -4453.90 -4446.58 -4441.97 -4438.95 -4439.96 -4438.93 -4440.33
-4851.73 -4852.34 -4856.33 -4864.69 -4875.77 -4883.25 -4892.16 -4898.38 -4910.10 -4915.14 -4922.32 -4927.80 -4934.79 -4943.34 -4947.96 -4957.22 -4961.58 -4975.19 -4980.45 -4988.47 -5027.85 -5109.20 -5150.97 -5202.44 -5202.59 -5185.46 -5176.77 -5173.05 -5172.78 -5173.99 -5173.42 -5174.44 -5179.94 -5184.02 -5185.24 -5199.90 -5207.33 -5220.58 -5231.80 -5244.53 -5257.74 -5269.97 -5285.81 -5294.96 -5312.79 -5320.96 -5332.33 -5339.25 -5345.87 -5351.42 -5350.80 -5347.42 -5346.56 -5335.66 -5320.33 -5322.07 -5312.76 -5298.26 -5291.81 -5284.51 -5275.73 -5258.88 -5251.40 -5242.09 -5232.45 -5225.41 -5222.37 -5210.78 -5186.83 -5155.36 -5069.68 -4980.91 -4852.01 -4636.09 -4440.65 -3869.44 -3106.53 -2577.96 -2093.84 -1590.34 -465.39 -170.52 -64.53 -10.24 23.03 67.73 90.71 108.04 143.72 158.43 163.28 179.12 188.61 182.37 178.39 173.14 170.88 159.17 134.35 123.47 104.92 70.53 52.00 32.15 17.75 7.47 -5.61 -2663.03 -5152.39 -9934.80 -10826.32 -10640.00 -10595.11 -10448.54 -10499.48 -10454.84 -10186.34 -9962.10 -10182.67 -7982.02 -6516.32 -4718.70 -4491.56 -4488.69 -4523.34 -4518.46 -4505.88 -4504.91 -4502.73 -4489.73 -4477.99 -4468.03 -4451.18 -4445.47 -4437.05 -4427.27 -4424.98 -4425.53 -4427.93 -4423.08 -4423.16
-4863.60 -4865.68 -4870.78 -4877.08 -4883.73 -4891.08 -4897.75 -4907.02 -4913.07 -4918.48 -4923.84 -4929.67 -4937.44 -4943.14 -4949.70 -4957.47 -4965.00 -4977.32 -4985.68 -4989.81 -5004.57 -5073.29 -5128.92 -5221.07 -5187.89 -5183.60 -5179.26 -5180.79 -5182.86 -5181.12 -5181.25 -5183.03 -5190.78 -5195.64 -5198.79 -5209.42 -5217.79 -5230.31 -5243.65 -5257.35 -5266.88 -5290.90 -5302.88 -5314.75 -5328.32 -5339.61 -5352.96 -5351.18 -5361.16 -5358.87 -5353.43 -5350.92 -5350.29 -5341.21 -5334.31 -5330.91 -5324.24 -5310.76 -5301.50 -5290.03 -5281.99 -5269.82 -5252.96 -5249.51 -5238.20 -5228.15 -5216.55 -5211.88 -5190.42 -5152.75 -5083.58 -4984.46 -4770.86 -4472.66 -3750.17 -3052.40 -2645.18 -2034.29 -1745.48 -884.05 -187.83 -69.53 -29.77 -2.01 37.88 83.97 105.15 133.04 164.03 183.67 209.88 209.69 210.57 220.69 208.40 196.92 194.71 180.75 166.53 137.00 110.94 76.40 60.46 38.89 19.62 2.13 -20.10 -1826.78 -6732.55 -11162.41 -10844.04 -9931.07 -10325.33 -10131.87 -10134.18 -9856.40 -9451.50 -9517.05 -9498.05 -8518.08 -6100.84 -4682.14 -4424.86 -4445.01 -4478.99 -4505.11 -4502.94 -4496.59 -4492.94 -4479.87 -4468.86 -4448.70 -4440.31 -4430.48 -4421.75 -4414.90 -4412.40 -4409.53 -4408.37 -4405.16 -4405.24
-4875.08 -4875.03 -4877.49 -4884.35 -4889.60 -4899.71 -4907.36 -4912.76 -4918.12 -4922.59 -4928.51 -4934.54 -4939.72 -4944.69 -4952.74 -4960.05 -4968.11 -4977.93 -4986.75 -4989.64 -4987.98 -5030.45 -5096.49 -5225.55 -5203.92 -5183.88 -5185.15 -5185.93 -5189.50 -5188.07 -5188.12 -5193.28 -5200.85 -5200.09 -5202.76 -5189.45 -5183.01 -5209.69 -5215.87 -5232.60 -5252.73 -5282.26 -5310.49 -5328.08 -5343.35 -5353.76 -5362.90 -5368.07 -5373.07 -5365.58 -5361.86 -5358.50 -5354.15 -5348.00 -5344.08 -5336.92 -5329.14 -5312.31 -5305.39 -5297.02 -5288.17 -5286.66 -5273.76 -5255.09 -5245.81 -5235.07 -5213.88 -5211.03 -5193.29 -5174.53 -5077.45 -4935.98 -4628.41 -4416.51 -3593.48 -2955.83 -2465.08 -2030.42 -1840.07 -950.56 -240.69 -50.53 -16.20 10.31 59.63 95.47 117.49 137.36 193.27 217.54 243.52 244.03 246.40 246.38 233.33 238.47 236.61 211.74 189.22 151.25 126.73 95.09 64.48 49.32 14.28 -10.61 -33.26 -1605.01 -5261.23 -7753.17 -8727.87 -7894.74 -9355.32 -9465.24 -9372.13 -9133.83 -8856.37 -8938.07 -8805.00 -8660.45 -6240.95 -4886.61 -4394.94 -4425.42 -4468.76 -4498.59 -4500.45 -4490.33 -4483.60 -4473.32 -4453.99 -4442.58 -4428.85 -4416.50 -4409.39 -4396.72 -4392.60 -4384.74 -4388.06 -4389.04 -4389.11
-4886.00 -4885.95 -4889.16 -4897.95 -4901.96 -4906.61 -4911.73 -4917.61 -4922.01 -4928.89 -4931.73 -4938.16 -4943.11 -4949.57 -4954.50 -4963.40 -4970.11 -4980.00 -4988.88 -4994.99 -4980.74 -4971.30 -5084.55 -5108.00 -5170.71 -5187.68 -5192.37 -5195.42 -5194.90 -5192.74 -5194.45 -5196.75 -5197.00 -5182.58 -5146.08 -5123.41 -5078.11 -5035.47 -5103.50 -5116.48 -5177.66 -5229.87 -5286.18 -5314.70 -5344.30 -5351.63 -5365.59 -5369.60 -5379.99 -5375.48 -5370.69 -5359.68 -5360.36 -5353.22 -5346.41 -5340.24 -5333.60 -5317.37 -5308.29 -5297.62 -5293.38 -5288.84 -5282.21 -5258.53 -5250.12 -5235.44 -5215.20 -5207.18 -5190.33 -5146.62 -5032.97 -4765.35 -4512.25 -4029.68 -3735.27 -2838.71 -2416.96 -2041.46 -1684.14 -938.97 -130.20 -22.27 -12.37 28.01 55.00 102.19 145.85 178.30 212.93 228.38 244.21 283.88 285.23 283.34 272.29 265.29 260.22 236.65 211.92 153.53 135.16 111.09 73.83 41.35 6.87 -25.03 -63.70 -305.09 -1508.54 -2602.13 -2911.57 -5344.62 -8224.83 -8806.59 -8644.08 -8243.73 -7996.57 -7774.94 -7497.54 -7487.22 -6157.55 -4762.07 -4467.66 -4415.78 -4460.34 -4486.73 -4497.11 -4485.41 -4479.09 -4462.03 -4443.47 -4429.82 -4410.67 -4408.62 -4390.69 -4384.81 -4380.78 -4374.83 -4373.44 -4372.29 -4373.71
-4898.23 -4898.18 -4903.95 -4906.83 -4909.22 -4914.82 -4919.29 -4923.52 -4930.30 -4930.63 -4937.37 -4942.00 -4947.77 -4951.88 -4957.92 -4964.97 -4972.73 -4984.35 -4993.36 -4999.69 -5005.03 -4990.64 -5016.40 -5089.51 -5167.23 -5203.16 -5184.67 -5193.92 -5190.52 -5180.09 -5162.31 -5167.24 -5111.64 -5087.51 -5016.30 -4787.76 -4433.10 -4607.53 -4707.11 -4711.28 -4861.90 -5008.80 -5161.07 -5234.54 -5277.81 -5309.34 -5341.10 -5344.30 -5362.48 -5364.37 -5370.82 -5367.74 -5364.14 -5356.70 -5349.45 -5341.22 -5332.66 -5322.02 -5313.10 -5305.60 -5296.62 -5289.86 -5286.29 -5268.87 -5246.15 -5238.98 -5225.83 -5173.38 -5171.54 -5117.37 -5011.88 -4764.32 -4510.58 -4139.82 -3787.00 -3099.92 -2525.59 -2401.70 -1390.21 -492.24 -105.66 -22.73 -1.76 42.19 86.13 112.11 156.33 202.71 229.35 250.16 278.56 314.67 335.70 310.84 312.77 306.74 277.34 229.98 211.82 160.01 132.72 113.31 58.67 47.13 -0.44 -20.44 -228.30 -466.00 -925.81 -1852.52 -2330.40 -3440.35 -5402.30 -8024.49 -7853.85 -7870.44 -7169.85 -6854.02 -6310.08 -6255.40 -5571.84 -4900.64 -4505.20 -4410.58 -4450.25 -4482.24 -4490.35 -4480.22 -4465.24 -4451.62 -4431.16 -4420.45 -4401.21 -4391.49 -4380.49 -4370.85 -4361.87 -4359.91 -4362.74 -4357.45 -4357.52
-4921.92 -4923.87 -4918.20 -4922.07 -4919.57 -4929.49 -4928.93 -4930.37 -4933.50 -4938.34 -4944.78 -4946.38 -4951.65 -4960.28 -4960.95 -4974.14 -4977.25 -4993.28 -4997.98 -5008.51 -5016.06 -5004.80 -4968.59 -4934.07 -5003.78 -5057.02 -5126.08 -5144.06 -5162.38 -5161.27 -5124.26 -5057.91 -4779.24 -4572.69 -4348.46 -4007.79 -3394.17 -3243.16 -3574.97 -3748.76 -3896.94 -3959.97 -4623.51 -5053.85 -5000.89 -5263.83 -5289.32 -5305.37 -5308.84 -5346.75 -5358.77 -5367.55 -5366.31 -5360.14 -5348.84 -5339.81 -5334.96 -5326.11 -5318.84 -5309.04 -5302.57 -5293.92 -5291.52 -5292.50 -5241.24 -5197.19 -5154.50 -5135.49 -5168.66 -5119.34 -5063.36 -4887.54 -4632.42 -4187.21 -3896.28 -3360.71 -3040.70 -2727.43 -1218.88 -325.19 -53.25 -17.24 30.47 73.68 123.68 140.04 212.57 321.14 370.11 404.38 498.84 399.35 387.55 389.48 385.45 425.61 264.62 237.11 222.86 173.42 131.72 109.05 73.39 36.47 -7.55 -53.02 -333.99 -652.45 -892.47 -1072.71 -1303.13 -2448.29 -3365.68 -6506.14 -7411.54 -7169.58 -6618.77 -6102.80 -5684.09 -5574.00 -5299.75 -4757.41 -4534.97 -4414.73 -4442.80 -4467.59 -4469.35 -4466.18 -4455.42 -4436.55 -4419.73 -4407.53 -4389.12 -4378.35 -4366.00 -4358.98 -4348.87 -4343.20 -4348.23 -4341.98 -4342.05
-4982.99 -4983.01 -4996.10 -4974.76 -5000.68 -4976.82 -4957.25 -4955.64 -4950.51 -4964.73 -4960.53 -4955.36 -4960.49 -4963.80 -4981.27 -4986.07 -4998.61 -5010.26 -5018.06 -5030.68 -5030.89 -4995.58 -4937.75 -4674.28 -4378.31 -4286.31 -4677.40 -4867.43 -4859.18 -5062.85 -4933.99 -4558.40 -4252.36 -3804.29 -3268.92 -2794.98 -2506.08 -2504.37 -2700.94 -2699.06 -2866.46 -3403.94 -3409.51 -4069.82 -4313.98 -4613.28 -5211.27 -5184.65 -5233.97 -5244.26 -5324.26 -5341.73 -5341.46 -5351.67 -5344.68 -5343.76 -5335.75 -5332.69 -5329.59 -5324.78 -5314.17 -5303.29 -5301.69 -5307.45 -5242.79 -5164.33 -5142.19 -5143.56 -5142.42 -5085.65 -4952.61 -4722.47 -4555.18 -4309.07 -3899.62 -3369.08 -3026.55 -1941.86 -771.17 -198.00 -21.15 0.04 35.03 107.43 139.68 194.87 390.31 508.19 583.78 693.03 734.47 658.62 650.81 721.22 620.34 570.62 331.52 256.43 226.31 174.48 132.44 120.31 79.17 33.87 -35.00 -70.45 -209.70 -527.22 -925.83 -1075.13 -1167.77 -1686.17 -3144.80 -5433.35 -6488.27 -5905.84 -5748.88 -5545.17 -5310.87 -5148.05 -4856.53 -4744.23 -4498.31 -4453.35 -4440.56 -4465.74 -4458.53 -4458.25 -4451.11 -4429.82 -4408.13 -4395.70 -4372.97 -4368.29 -4352.16 -4343.24 -4336.80 -4335.02 -4331.07 -4327.41 -4327.48
-5113.42 -5125.75 -5126.10 -5112.46 -5114.87 -5035.16 -5027.95 -4992.00 -5018.43 -5041.56 -4998.51 -4999.50 -5003.13 -5001.46 -5015.71 -5027.59 -5065.75 -5064.58 -5079.96 -5075.72 -5063.97 -4968.30 -4585.26 -4016.27 -3311.84 -3438.38 -3444.08 -4144.05 -4252.69 -4534.05 -4300.49 -3625.40 -2964.94 -2670.85 -2373.49 -2013.36 -1895.36 -1930.99 -2035.86 -2058.13 -2179.90 -2341.90 -2690.53 -3027.19 -3590.48 -4006.00 -4551.55 -4889.18 -4960.96 -4916.89 -5072.60 -5160.04 -5277.69 -5290.49 -5332.48 -5341.27 -5331.83 -5335.75 -5338.14 -5335.19 -5327.96 -5317.81 -5309.59 -5311.04 -5275.35 -5230.61 -5216.27 -5196.00 -5073.72 -5026.65 -4721.74 -4619.54 -4577.14 -4541.54 -4116.49 -2794.24 -1684.69 -915.90 -264.91 -94.17 6.29 51.33 65.18 125.33 175.31 243.34 389.98 648.10 874.85 983.86 970.00 984.26 1114.63 1038.06 1133.75 832.48 467.37 274.78 233.49 178.65 142.57 120.40 86.07 42.07 -30.74 -73.28 -244.00 -282.55 -1012.09 -1530.92 -1402.56 -1946.74 -3012.85 -4921.84 -5885.17 -5779.02 -5464.49 -5226.12 -4998.04 -4840.25 -4690.16 -4532.96 -4506.99 -4459.22 -4452.58 -4460.48 -4439.43 -4438.28 -4438.54 -4423.18 -4404.14 -4376.14 -4363.14 -4353.87 -4340.48 -4332.00 -4323.74 -4322.12 -4314.64 -4312.60 -4310.07
-5363.65 -5332.43 -5283.67 -5283.37 -5235.91 -5203.45 -5172.58 -5143.45 -5079.26 -5114.07 -5086.71 -5064.50 -5078.62 -5113.09 -5188.83 -5152.90 -5211.10 -5181.81 -5160.76 -5143.71 -5108.97 -4970.35 -4221.35 -3167.79 -2473.54 -2355.44 -2782.04 -3110.41 -3065.94 -3479.52 -3645.34 -3073.77 -2219.55 -1934.97 -1811.00 -1568.52 -1069.29 -1330.40 -1259.30 -1759.01 -1301.56 -2106.39 -2543.20 -2642.32 -2844.48 -3200.23 -3914.78 -4288.53 -4335.87 -4507.68 -4718.29 -4928.76 -4968.36 -5167.74 -5313.46 -5332.54 -5306.14 -5318.49 -5277.02 -5309.04 -5315.23 -5327.28 -5322.82 -5310.75 -5285.31 -5273.36 -5087.55 -5078.47 -4947.78 -4549.35 -4395.21 -3937.82 -3769.01 -3249.39 -2249.69 -568.57 -366.09 -352.69 -40.84 20.68 59.18 87.62 122.22 166.06 183.97 219.69 277.11 557.52 823.98 874.04 1115.00 1289.62 1340.22 1254.03 1201.16 725.01 566.89 289.26 248.60 191.65 157.58 121.63 90.92 23.56 -8.73 -50.11 -145.95 -459.37 -947.55 -2171.18 -1607.16 -1946.00 -2864.35 -4455.53 -5612.25 -5384.98 -5130.33 -4958.13 -4758.47 -4615.18 -4546.34 -4514.34 -4460.11 -4441.49 -4438.19 -4433.75 -4428.24 -4421.89 -4420.80 -4400.70 -4383.67 -4364.02 -4359.24 -4337.10 -4328.19 -4316.82 -4311.31 -4302.26 -4300.06 -4295.15 -4295.20
-5574.91 -5574.69 -5477.53 -5441.81 -5413.03 -5431.04 -5438.17 -5363.73 -5341.28 -5284.19 -5246.54 -5202.13 -5289.82 -5300.86 -5318.10 -5310.93 -5305.83 -5392.24 -5367.58 -5315.64 -5205.12 -4935.41 -4039.08 -3203.48 -2059.56 -1952.61 -1963.04 -2141.00 -2297.30 -2616.53 -2655.85 -2382.66 -2025.76 -1484.41 -1015.91 -383.12 -354.36 -103.01 -139.18 -396.12 -312.79 -1337.67 -1601.53 -1386.14 -1886.74 -2351.02 -2919.53 -3288.58 -3631.17 -3533.19 -3671.57 -4017.48 -4317.77 -4610.61 -5046.21 -5142.87 -5238.32 -5058.97 -4857.70 -5118.18 -5149.25 -5241.04 -5129.67 -5182.45 -5139.73 -4891.55 -4845.18 -4244.02 -3913.01 -3530.68 -3032.29 -3161.86 -3237.64 -1705.30 -709.51 -124.16 0.81 15.41 28.10 48.83 81.59 105.78 145.35 170.76 206.31 237.52 281.46 395.02 447.47 585.83 781.20 984.25 1110.39 1288.81 1275.19 781.34 661.68 294.05 254.79 182.48 147.05 130.23 93.32 13.39 -17.30 -44.25 -84.69 -251.59 -807.13 -3005.45 -2166.19 -2308.00 -3169.41 -4068.18 -4865.82 -4932.97 -5002.39 -4249.82 -4249.66 -4390.60 -4339.49 -4384.08 -4425.62 -4418.25 -4432.06 -4428.72 -4423.12 -4413.67 -4397.12 -4381.73 -4361.54 -4356.18 -4335.71 -4324.10 -4313.28 -4300.64 -4293.84 -4287.79 -4283.84 -4281.61 -4279.56
-5701.50 -5701.37 -5698.93 -5618.73 -5580.71 -5560.91 -5548.65 -5508.39 -5526.72 -5492.87 -5478.42 -5437.70 -5444.71 -5486.12 -5491.57 -5584.73 -5593.11 -5681.91 -5557.03 -5500.87 -5400.47 -4983.73 -3905.90 -2937.48 -2096.87 -2014.12 -2016.58 -2018.12 -1951.11 -2057.98 -2155.51 -2145.12 -1495.99 -762.98 -372.14 -130.08 -32.93 -10.81 -30.97 -39.99 -27.66 -109.00 -471.71 -161.61 -128.47 -1061.30 -1896.06 -2629.06 -2778.46 -2879.74 -2923.35 -3056.26 -3233.35 -3352.70 -4159.46 -4825.02 -4794.22 -4573.03 -4524.72 -4500.69 -4492.83 -4162.17 -4597.01 -4742.10 -4622.17 -4300.31 -4246.32 -3459.82 -3274.68 -2555.03 -2507.37 -2371.47 -1237.15 -318.28 -99.79 30.68 55.34 56.56 47.73 61.75 99.76 122.34 162.95 202.00 231.49 260.51 281.34 330.16 388.06 459.61 545.31 663.55 855.42 1092.75 1174.39 976.16 686.63 574.94 369.74 191.06 142.54 129.98 80.82 26.43 -5.15 -40.99 -108.72 -308.01 -877.92 -2248.88 -2975.74 -3413.16 -3496.22 -3414.72 -3628.66 -3728.75 -4212.05 -3631.64 -3706.67 -3946.78 -4033.31 -4243.40 -4211.05 -4272.41 -4321.18 -4391.58 -4392.98 -4390.06 -4379.23 -4362.36 -4351.23 -4333.86 -4316.00 -4308.50 -4297.42 -4283.62 -4279.01 -4276.80 -4268.70 -4262.08 -4262.13
-5749.99 -5749.90 -5753.44 -5727.02 -5732.91 -5724.70 -5705.54 -5693.88 -5700.84 -5679.91 -5651.50 -5679.27 -5645.52 -5697.07 -5727.22 -5706.77 -5702.44 -5750.15 -5732.55 -5667.33 -5549.13 -5269.54 -4109.13 -3317.46 -2399.50 -2388.17 -2470.38 -2393.46 -2106.95 -2031.53 -2141.19 -1885.29 -1368.13 -348.62 -89.84 12.91 25.38 28.25 31.50 10.92 -1.36 -34.78 -143.43 -73.42 -83.89 -335.22 -1211.73 -1639.66 -1724.57 -2199.93 -1860.43 -992.14 -857.09 -2837.35 -2954.47 -3335.02 -3338.15 -3483.23 -3356.47 -3606.64 -3159.44 -3585.52 -3500.51 -3804.30 -3662.43 -3125.19 -2717.95 -2585.22 -2337.81 -2248.88 -1849.36 -880.89 -307.76 -211.24 28.00 56.57 71.97 82.77 99.28 92.25 138.46 152.42 179.60 207.27 255.76 290.57 327.50 351.26 388.77 437.71 484.99 549.67 671.53 913.40 962.70 914.78 796.95 721.46 383.19 237.90 165.91 124.53 90.38 55.15 15.27 -30.92 -100.88 -438.71 -1129.04 -2945.56 -4531.33 -4138.20 -3919.23 -3509.56 -3306.72 -3338.28 -3474.18 -3282.78 -3317.72 -3435.08 -3540.31 -3821.31 -3846.32 -3999.66 -4213.47 -4329.71 -4353.20 -4352.54 -4358.86 -4341.00 -4317.16 -4315.47 -4298.90 -4283.58 -4275.34 -4262.75 -4257.92 -4248.39 -4245.51 -4244.03 -4244.08
-5766.85 -5765.95 -5768.46 -5768.40 -5768.60 -5764.30 -5764.84 -5776.87 -5758.07 -5758.25 -5754.87 -5761.69 -5776.00 -5781.11 -5788.02 -5807.95 -5814.27 -5819.85 -5804.13 -5749.65 -5675.88 -5526.32 -4766.77 -3799.76 -3723.10 -3282.21 -3460.12 -3508.70 -2922.98 -2857.88 -2777.50 -1288.57 -715.13 -116.98 -33.46 24.32 59.43 101.46 76.14 54.65 40.11 7.04 -26.98 -28.15 -30.96 -127.74 -294.61 -668.24 -965.34 -904.83 -422.57 -160.50 -191.72 -181.36 -1448.80 -1229.05 -1026.44 -1761.65 -2073.33 -2027.28 -2483.39 -2671.56 -2729.47 -2970.21 -2830.37 -2463.19 -2555.57 -2095.25 -2180.55 -1998.75 -1484.11 -216.65 -11.44 37.23 56.87 90.33 114.69 108.24 114.08 134.99 157.01 166.58 197.13 231.67 273.69 309.91 333.48 371.82 400.18 437.83 484.76 529.71 542.75 627.94 756.01 929.35 996.17 711.63 405.16 225.75 197.89 145.69 102.02 76.77 56.15 1.19 -39.45 -148.23 -1062.35 -3095.61 -4370.55 -4513.29 -4251.80 -4087.67 -3740.58 -3217.05 -3202.07 -3184.03 -3186.14 -3207.24 -3262.59 -3440.52 -3556.15 -3839.77 -4095.49 -4195.58 -4296.61 -4324.17 -4315.55 -4301.18 -4300.20 -4290.87 -4280.20 -4266.72 -4252.64 -4240.27 -4239.25 -4228.66 -4222.22 -4224.53 -4224.58
-5780.81 -5779.68 -5781.60 -5785.26 -5782.47 -5785.54 -5790.17 -5791.53 -5793.46 -5786.80 -5790.27 -5798.19 -5798.01 -5807.25 -5814.39 -5818.33 -5826.13 -5829.94 -5832.47 -5814.54 -5795.49 -5698.90 -5317.97 -4991.73 -4849.87 -5062.88 -4909.82 -4406.24 -3701.83 -3074.39 -2171.82 -519.99 -254.93 -69.34 -2.38 5.69 57.19 187.06 164.23 76.34 46.74 35.83 22.20 17.18 17.07 18.89 9.46 17.87 4.28 -22.19 -49.03 -55.64 -131.11 -186.56 -238.20 -261.43 -255.89 -844.96 -925.87 -1786.34 -2210.61 -2182.16 -2542.58 -2544.96 -2552.22 -2503.41 -2236.92 -1551.62 -1021.93 -945.55 -792.79 -15.09 46.10 64.06 91.24 143.85 166.79 159.62 144.30 159.09 154.38 188.56 204.95 234.02 266.38 301.65 332.92 362.85 397.62 421.89 472.10 511.01 547.24 575.02 633.56 798.42 998.35 723.19 554.88 375.68 184.99 159.74 133.55 112.81 78.33 14.68 -42.77 -128.30 -1819.69 -3322.60 -3847.72 -4073.08 -4367.82 -4509.31 -4234.52 -3973.58 -3869.04 -3434.64 -3326.93 -3232.24 -3183.85 -3218.21 -3339.24 -3638.50 -3836.24 -4084.57 -4210.23 -4275.90 -4280.03 -4277.72 -4263.23 -4258.62 -4253.35 -4241.24 -4235.14 -4225.37 -4214.75 -4211.14 -4207.48 -4205.22 -4202.49
-5796.44 -5795.08 -5796.51 -5797.00 -5800.62 -5800.95 -5800.85 -5797.75 -5806.54 -5808.79 -5811.63 -5814.31 -5821.73 -5822.32 -5826.00 -5833.08 -5835.43 -5844.18 -5844.35 -5848.20 -5840.35 -5824.31 -5765.98 -5664.10 -5649.55 -5650.86 -5495.77 -5440.47 -5160.43 -2050.74 -792.26 -286.51 -66.59 -33.89 -3.43 13.13 69.30 104.98 183.93 138.48 130.91 87.46 67.61 42.11 62.01 49.62 40.49 41.68 26.86 16.39 19.30 14.56 -7.36 -76.60 -108.57 -136.60 -170.89 -184.65 -205.14 -606.93 -749.20 -1393.55 -1938.24 -2192.80 -2350.07 -1960.41 -1287.01 -615.44 -143.72 -71.19 -32.36 20.46 57.63 73.97 106.41 182.29 273.94 192.15 191.60 188.15 189.11 207.33 212.75 247.22 274.02 293.46 326.62 355.55 398.02 413.04 458.54 494.24 504.03 554.05 606.45 772.72 953.11 944.77 816.00 630.66 208.98 202.18 184.60 116.34 88.23 34.57 -8.26 -60.57 -1011.88 -2892.38 -2781.59 -3251.94 -3931.22 -4501.73 -4550.09 -4438.65 -4352.46 -4084.39 -3714.29 -3334.80 -3213.54 -3116.29 -3251.68 -3545.35 -3874.23 -4072.78 -4193.21 -4246.64 -4256.46 -4249.59 -4237.40 -4236.10 -4228.74 -4218.96 -4209.96 -4201.98 -4195.40 -4191.65 -4182.67 -4180.76 -4177.86
-5812.55 -5812.47 -5816.78 -5815.76 -5812.41 -5818.42 -5818.39 -5816.53 -5818.89 -5823.11 -5819.67 -5828.25 -5830.87 -5832.98 -5841.97 -5848.63 -5847.76 -5853.85 -5853.61 -5855.52 -5852.83 -5842.06 -5820.12 -5809.68 -5780.28 -5737.80 -5738.61 -6000.69 -6522.81 -3607.24 -543.88 -106.83 -40.18 -20.12 0.03 27.28 70.82 109.52 182.67 194.89 170.11 81.48 92.07 90.08 88.60 74.98 64.13 56.06 52.89 50.54 49.46 37.70 12.03 -11.02 -48.73 -88.15 -106.35 -111.44 -119.52 -161.36 -191.68 -496.54 -861.55 -1274.92 -1437.87 -757.36 -491.50 -174.69 3.18 15.83 28.99 41.89 78.59 105.17 163.32 270.24 332.99 262.94 220.97 229.23 205.02 216.14 226.90 260.19 268.33 293.98 328.42 336.30 373.67 406.87 440.50 482.54 500.66 553.46 585.37 619.76 791.72 953.77 841.11 486.52 277.24 234.27 200.45 131.34 94.64 88.31 50.86 -31.02 -140.62 -1275.43 -3021.99 -3640.41 -4022.51 -4402.98 -4600.56 -4587.04 -4572.55 -4530.38 -4199.04 -3669.53 -3337.98 -3089.38 -3256.52 -3558.37 -3784.65 -4060.82 -4160.77 -4201.05 -4193.30 -4208.19 -4201.68 -4200.37 -4199.73 -4194.26 -4190.81 -4177.54 -4166.43 -4162.19 -4151.96 -4151.74 -4151.78
-5828.32 -5827.10 -5828.38 -5830.25 -5835.47 -5829.87 -5836.64 -5832.73 -5832.07 -5834.13 -5840.24 -5844.20 -5849.46 -5851.12 -5854.53 -5856.54 -5863.91 -5862.87 -5863.45 -5864.44 -5864.09 -5858.98 -5845.35 -5824.74 -5794.70 -5782.92 -5851.40 -6197.92 -7277.12 -3639.25 -519.81 -98.91 -33.26 -6.55 10.43 29.84 68.64 101.85 169.67 257.03 227.26 153.49 119.84 126.50 183.13 185.15 169.36 95.08 88.66 83.25 77.51 72.24 43.76 30.05 7.57 -33.62 -34.56 -55.35 -57.75 -94.43 -156.26 -180.03 -188.66 -510.75 -260.06 -231.54 -103.62 -3.91 12.40 28.13 44.11 58.59 77.04 113.58 177.16 263.13 375.70 339.22 272.77 254.20 255.44 237.82 258.21 268.36 277.58 301.54 328.34 348.38 373.43 408.09 445.44 466.65 496.67 546.64 566.02 610.16 634.68 692.35 836.33 681.36 718.28 413.27 248.89 159.16 128.70 93.96 73.43 60.81 -4.98 -990.10 -2796.81 -2571.75 -3281.80 -4356.48 -4662.11 -4623.48 -4567.61 -4553.52 -4416.14 -4083.86 -3338.53 -3038.68 -3198.48 -3513.21 -3744.56 -4014.76 -4151.60 -4169.77 -4171.42 -4166.35 -4182.42 -4175.06 -4167.57 -4158.06 -4152.74 -4143.73 -4143.14 -4136.50 -4133.18 -4128.25 -4124.94
-5842.29 -5842.21 -5846.13 -5845.35 -5844.44 -5846.38 -5846.38 -5848.11 -5851.86 -5855.93 -5853.72 -5857.48 -5863.09 -5866.52 -5867.78 -5871.85 -5871.20 -5874.64 -5872.79 -5873.99 -5871.35 -5868.95 -5851.16 -5831.72 -5790.48 -5785.93 -6067.67 -6580.24 -5376.48 -1299.45 -333.41 -90.15 -26.73 7.83 29.56 60.67 88.01 99.85 148.79 267.93 271.28 251.04 236.76 187.90 269.03 248.33 269.21 132.68 113.59 122.13 91.85 87.41 77.19 50.12 24.54 8.51 -12.51 -14.29 -35.35 -75.74 -91.44 -83.32 -107.30 -123.70 -77.63 -18.45 -2.26 18.39 35.42 44.53 51.90 79.49 108.67 114.76 235.09 323.92 411.75 411.95 325.98 284.70 267.25 257.09 270.04 280.32 302.20 312.30 327.22 345.11 375.25 404.50 439.82 459.50 477.26 518.00 557.86 573.69 592.83 655.07 812.88 892.04 844.74 516.18 284.33 209.86 163.00 138.15 98.57 65.18 22.37 -25.38 -864.50 -1228.33 -3002.31 -4116.17 -4719.85 -4665.22 -4567.04 -4539.76 -4501.01 -4013.63 -3400.14 -2886.88 -3048.84 -3351.60 -3851.05 -4043.49 -4119.27 -4125.48 -4129.34 -4149.24 -4132.48 -4144.66 -4136.02 -4137.09 -4126.84 -4125.17 -4110.06 -4112.58 -4099.17 -4097.66 -4097.70
-5854.63 -5854.55 -5858.21 -5860.67 -5863.24 -5863.27 -5866.91 -5866.94 -5870.20 -5867.81 -5873.56 -5876.77 -5877.99 -5882.57 -5884.04 -5885.20 -5885.48 -5886.16 -5888.76 -5887.08 -5883.28 -5873.51 -5855.26 -5822.89 -5799.51 -5829.58 -6229.37 -6755.21 -6321.24 -2389.98 -425.93 -60.94 6.86 22.07 55.42 73.68 102.34 133.24 161.76 257.59 309.74 329.91 328.70 344.41 420.37 491.00 402.21 235.94 175.24 156.07 96.14 95.72 90.19 60.98 30.71 24.80 8.42 -0.51 -11.93 -18.68 -21.67 -29.66 -22.27 -27.89 -23.99 24.78 31.03 36.86 47.66 52.88 64.83 83.99 121.52 134.08 201.35 274.27 455.30 457.77 375.01 293.49 281.32 275.91 282.11 292.00 308.13 313.38 344.65 357.36 374.07 402.88 442.20 460.21 472.44 515.93 520.14 523.73 557.90 588.57 658.18 860.52 923.57 816.18 560.63 293.76 181.63 168.90 134.78 79.28 28.02 -4.91 -102.42 -352.59 -1923.91 -2263.27 -4458.13 -4757.35 -4610.50 -4535.11 -4508.08 -4102.28 -3443.85 -2569.17 -2618.59 -3066.73 -3659.16 -3978.06 -4077.50 -4087.76 -4092.60 -4097.16 -4110.23 -4110.90 -4111.98 -4109.50 -4101.11 -4095.54 -4097.50 -4082.19 -4074.31 -4070.32 -4070.36
-5865.95 -5865.88 -5871.06 -5872.82 -5872.20 -5872.51 -5876.90 -5875.58 -5879.55 -5884.09 -5886.61 -5888.20 -5893.78 -5897.22 -5899.68 -5901.39 -5903.37 -5908.44 -5902.75 -5898.95 -5893.53 -5878.52 -5860.60 -5835.01 -5818.43 -5926.01 -6339.85 -6528.18 -6054.44 -334.16 -136.73 -10.63 20.69 40.21 85.52 99.92 108.14 149.64 183.93 208.45 263.39 310.64 354.36 428.85 550.31 542.56 529.05 303.49 259.92 176.77 113.42 96.91 92.96 89.37 69.62 58.99 30.45 19.27 10.05 9.64 -6.01 -7.59 -9.50 -1.37 11.89 31.13 42.70 49.54 52.42 61.05 63.50 87.77 110.45 140.74 180.29 247.49 360.67 403.92 347.95 297.40 292.07 286.97 292.25 302.86 314.11 326.04 350.76 362.27 382.54 399.97 437.28 466.54 486.54 512.81 517.78 523.04 536.99 577.40 646.46 843.24 1023.77 896.20 702.03 411.16 215.17 178.38 174.21 161.24 103.26 22.52 -81.62 -421.67 -724.58 -2112.17 -3096.22 -4757.24 -4651.91 -4522.62 -4494.94 -4330.62 -3437.83 -2394.52 -2595.41 -3010.07 -3504.04 -3749.93 -3966.89 -4051.17 -4064.13 -4076.57 -4087.47 -4081.52 -4080.13 -4083.28 -4074.32 -4061.48 -4064.49 -4057.63 -4045.81 -4044.68 -4044.73
-5874.61 -5874.56 -5878.53 -5881.64 -5884.57 -5885.73 -5886.58 -5892.18 -5893.65 -5893.72 -5898.00 -5903.07 -5906.10 -5906.26 -5910.35 -5912.46 -5910.62 -5914.56 -5915.09 -5914.41 -5905.62 -5889.65 -5883.48 -5880.49 -5904.72 -6333.91 -6462.83 -4443.84 -1834.75 -220.12 -54.22 -22.11 20.96 34.69 84.16 112.35 135.03 167.69 180.12 235.48 265.04 297.88 333.58 405.27 530.00 693.68 617.61 504.13 296.80 192.83 161.62 129.68 96.68 94.34 89.36 75.21 57.42 40.48 35.02 23.25 18.57 4.65 14.12 24.30 40.73 55.51 53.49 57.50 62.11 64.80 73.39 91.88 109.39 142.71 164.05 222.01 265.21 314.58 294.32 291.71 288.82 287.32 293.65 303.92 318.20 334.68 348.88 369.97 387.27 400.71 442.02 465.79 488.48 511.47 514.79 520.17 541.44 554.86 575.39 640.02 919.24 922.75 771.94 437.13 304.51 249.84 217.52 130.28 92.37 12.07 -84.34 -381.17 -774.65 -1799.07 -2871.26 -4777.81 -4655.17 -4542.35 -4493.80 -4389.23 -3158.33 -2363.26 -2244.91 -2881.35 -3099.06 -3608.18 -3786.68 -3994.79 -4034.05 -4042.48 -4038.42 -4052.49 -4064.00 -4048.07 -4045.94 -4040.65 -4041.50 -4032.55 -4030.22 -4024.57 -4021.97
-5880.59 -5880.52 -5886.47 -5887.09 -5893.00 -5895.07 -5901.82 -5901.79 -5905.30 -5908.39 -5912.50 -5914.26 -5920.74 -5925.37 -5926.58 -5928.24 -5932.29 -5930.03 -5930.91 -5925.27 -5921.29 -5909.42 -5908.38 -5927.48 -6127.13 -6325.53 -6164.71 -2530.20 -439.22 -166.66 -55.55 -9.71 33.88 51.81 66.81 108.02 125.26 159.46 193.87 242.32 308.82 338.43 340.95 410.93 493.90 698.37 693.92 490.98 333.91 247.58 200.83 171.37 127.16 103.75 101.38 80.62 72.49 57.72 48.61 43.93 42.43 33.77 49.34 57.21 52.91 66.19 72.54 90.46 87.02 81.99 90.31 108.60 117.95 142.76 178.40 210.78 237.59 267.40 276.42 283.35 284.65 286.95 296.51 307.81 324.39 341.98 351.82 366.43 396.30 410.76 438.52 467.23 493.27 508.42 511.65 513.71 517.71 542.33 562.98 561.63 791.15 863.61 874.42 628.79 385.96 246.59 195.29 154.12 92.60 15.99 -48.89 -378.56 -910.60 -2006.28 -3364.04 -4663.75 -4724.13 -4533.72 -4484.77 -4445.50 -3212.94 -2351.93 -2344.37 -2698.22 -2819.80 -3501.58 -3718.03 -3882.51 -3989.36 -3976.65 -4017.23 -4022.54 -4034.59 -4034.69 -4027.94 -4027.74 -4025.28 -4016.17 -4005.52 -4002.13 -4002.19
-5884.43 -5884.36 -5890.58 -5894.53 -5899.64 -5903.56 -5908.33 -5909.14 -5912.44 -5921.50 -5924.32 -5927.03 -5930.49 -5934.12 -5940.22 -5943.73 -5942.93 -5948.56 -5950.18 -5944.37 -5943.50 -5943.24 -5887.46 -5946.53 -6100.61 -4119.38 -2042.46 -535.42 -307.42 -75.57 -30.76 -4.51 30.59 61.01 86.50 107.91 124.00 157.10 241.61 266.17 300.77 337.02 423.17 418.26 471.02 576.45 590.83 549.33 343.17 303.99 251.88 191.59 162.63 124.82 123.00 96.38 83.78 70.50 80.47 69.50 63.75 60.21 89.02 87.91 77.96 84.78 94.22 95.63 92.42 95.40 106.20 121.79 129.58 154.57 170.12 188.57 222.51 248.64 263.04 268.73 280.51 288.87 298.48 312.23 332.14 352.16 358.94 380.19 400.46 424.73 446.40 472.09 479.59 497.70 503.64 501.19 506.56 512.10 538.74 548.16 612.87 803.78 701.19 504.42 299.76 251.54 224.73 191.20 139.85 68.43 -72.11 -389.55 -1115.67 -1734.43 -3859.95 -4613.38 -4628.33 -4523.03 -4494.59 -4125.46 -3443.31 -2329.64 -2182.73 -2426.96 -2845.22 -3235.54 -3695.99 -3781.95 -3843.96 -3938.05 -4010.97 -4010.12 -4011.31 -4008.17 -4005.71 -4012.17 -4004.71 -3995.91 -3991.24 -3985.06 -3985.12
-5886.56 -5886.49 -5894.07 -5898.53 -5905.83 -5908.96 -5913.14 -5917.93 -5923.11 -5926.73 -5930.46 -5936.11 -5942.43 -5944.34 -5952.26 -5955.44 -5962.17 -5967.88 -5959.67 -5948.70 -5940.35 -5889.26 -5725.31 -5581.09 -4980.61 -3535.68 -446.34 -368.09 -135.92 -32.91 -12.98 8.39 45.29 81.88 97.07 110.15 164.99 192.09 216.68 314.93 427.67 401.75 414.46 502.00 540.78 636.87 650.95 541.95 457.91 369.12 279.62 205.10 184.58 145.48 137.47 132.43 108.50 102.11 93.04 90.91 98.00 110.14 105.22 110.21 111.09 108.39 119.57 109.82 102.55 107.14 119.25 126.93 138.60 154.52 168.55 196.55 227.96 237.18 251.57 263.50 274.15 282.77 295.73 316.26 333.07 356.43 376.14 386.74 411.63 438.66 447.52 469.77 480.13 487.64 490.54 492.75 488.02 487.86 497.50 517.46 508.91 546.38 487.55 456.14 414.62 281.24 221.49 174.63 122.61 65.81 -29.63 -450.36 -1442.18 -2785.88 -4804.88 -4671.76 -4596.55 -4519.69 -4481.67 -4162.14 -3205.14 -2106.42 -2004.60 -2372.94 -2681.25 -3215.10 -3546.83 -3641.79 -3736.62 -3860.57 -3977.51 -3991.94 -3999.66 -3996.93 -3990.66 -3989.77 -3988.87 -3982.53 -3976.40 -3972.01 -3972.07
-5887.74 -5888.53 -5893.46 -5904.21 -5907.98 -5912.06 -5918.93 -5923.43 -5927.24 -5934.75 -5941.82 -5948.90 -5953.07 -5959.12 -5966.27 -5966.70 -5969.58 -5970.64 -5966.29 -5886.96 -5795.30 -5559.94 -4487.30 -3864.48 -3647.78 -2481.31 -995.37 -236.62 -134.83 -40.18 -1.55 28.59 77.62 97.95 102.93 152.39 184.86 223.08 287.62 296.45 407.16 526.47 557.97 583.92 635.97 676.98 663.06 628.04 510.05 344.35 275.21 215.60 203.51 187.77 160.10 148.87 135.43 121.50 117.86 109.75 101.09 132.27 142.20 144.24 143.14 128.30 136.22 137.74 122.99 128.54 125.25 132.67 140.05 156.85 166.52 195.00 214.07 226.82 241.05 253.42 273.20 280.18 288.77 321.73 343.43 360.52 393.26 409.98 427.98 439.80 460.66 472.39 485.00 489.40 495.31 496.34 493.05 494.02 495.10 494.25 500.93 669.15 785.73 702.36 536.59 284.58 209.69 152.29 82.63 25.55 -24.89 -118.83 -1642.52 -4003.46 -4925.83 -4619.84 -4553.86 -4511.75 -4430.96 -4065.09 -3176.92 -1909.84 -1856.89 -1902.00 -2496.87 -3050.25 -3321.52 -3454.07 -3776.63 -3855.93 -3891.13 -3929.73 -3972.82 -3985.96 -3988.73 -3984.10 -3976.91 -3973.90 -3969.11 -3963.95 -3964.02
-5888.94 -5888.87 -5896.30 -5904.07 -5908.76 -5918.97 -5921.43 -5928.90 -5936.37 -5944.44 -5948.56 -5955.01 -5962.24 -5967.96 -5973.96 -5965.01 -5961.63 -5947.26 -5772.96 -5691.83 -5239.53 -4795.64 -3753.52 -2450.72 -2543.00 -1947.83 -835.03 -246.94 -91.08 -27.24 22.57 72.38 87.66 100.97 119.03 156.86 183.32 193.49 267.04 368.52 488.30 559.17 656.28 660.86 657.44 575.87 585.80 566.16 383.20 356.48 306.65 262.74 221.81 205.88 189.04 169.78 155.44 152.69 151.20 165.42 186.82 179.44 163.09 169.07 167.28 150.99 151.27 147.57 144.04 139.79 141.53 142.09 140.53 153.07 172.44 184.73 210.08 223.40 236.80 257.61 264.60 281.68 301.91 318.77 344.84 372.67 394.20 418.24 431.81 447.68 474.42 491.00 497.76 506.60 509.34 522.90 520.49 518.11 527.07 535.88 579.52 823.46 865.69 644.11 420.02 267.32 208.79 155.88 114.46 45.48 -20.01 -594.53 -1909.84 -4466.82 -4681.46 -4588.24 -4412.77 -4350.17 -4278.41 -4023.75 -2828.68 -2091.47 -1696.32 -1817.36 -1969.50 -2645.92 -3014.28 -3242.11 -3619.93 -3796.95 -3864.54 -3902.32 -3958.21 -3971.78 -3978.16 -3975.99 -3971.13 -3969.11 -3964.59 -3960.31 -3960.38
-5891.07 -5890.99 -5898.50 -5905.23 -5912.32 -5921.58 -5927.28 -5934.71 -5940.91 -5949.75 -5955.67 -5962.76 -5970.65 -5970.04 -5955.31 -5928.84 -5805.15 -5674.33 -5258.21 -4622.22 -4020.31 -3778.59 -2854.08 -2319.51 -2113.69 -705.42 -249.81 -143.35 -44.07 -13.61 53.21 76.71 99.10 111.85 124.56 157.42 185.26 197.29 259.17 296.47 448.63 500.06 644.74 653.63 597.57 514.98 473.98 440.45 387.10 344.04 313.80 292.36 238.52 215.25 210.38 199.11 169.27 172.83 185.50 196.72 204.35 209.19 186.94 172.95 177.56 169.16 165.37 162.05 156.88 152.20 148.05 149.47 146.59 150.35 172.23 181.21 199.98 209.11 231.28 248.76 260.46 280.49 303.72 328.20 354.80 374.62 394.57 427.00 445.26 471.03 482.00 505.73 521.42 535.05 533.06 534.82 555.07 577.92 556.22 551.94 553.14 748.46 864.42 678.66 390.07 234.83 188.47 138.11 93.08 47.82 -50.49 -1296.14 -3750.25 -4638.05 -4427.29 -4392.91 -4297.45 -4195.52 -4166.21 -3927.57 -2683.99 -1937.23 -1671.98 -1843.21 -1994.48 -2423.31 -2832.84 -3108.67 -3547.06 -3793.42 -3859.90 -3870.05 -3943.23 -3967.80 -3972.14 -3971.15 -3969.42 -3966.70 -3964.76 -3961.50 -3961.57
-5895.03 -5895.56 -5901.78 -5911.00 -5919.56 -5927.27 -5933.86 -5943.23 -5947.66 -5956.52 -5963.06 -5962.12 -5950.49 -5921.85 -5883.45 -5634.99 -5336.09 -4650.11 -4073.62 -3537.24 -3401.44 -2405.06 -2440.74 -2205.91 -1027.73 -265.65 -138.31 -80.57 -31.36 3.44 52.10 73.40 95.29 143.46 152.92 215.84 204.95 243.94 272.38 339.16 370.66 468.14 600.61 660.58 609.50 522.66 489.93 430.44 381.89 339.97 309.77 303.91 270.22 236.51 224.06 213.99 203.06 212.55 219.14 229.22 228.19 223.74 212.03 190.84 189.84 183.33 183.59 170.24 164.97 164.16 155.98 155.42 157.56 163.59 167.90 180.36 191.14 208.23 230.95 246.44 268.83 294.01 309.88 331.96 359.12 383.45 407.65 448.32 464.64 484.57 506.19 516.10 532.11 541.91 548.64 565.19 580.81 605.52 610.39 602.30 641.16 740.90 673.88 655.50 427.66 234.93 190.28 133.82 85.64 47.84 -38.71 -2258.56 -4114.68 -4480.57 -4150.43 -4129.91 -4144.80 -4109.37 -4058.75 -3580.47 -2584.45 -1891.69 -1714.57 -1942.38 -2281.85 -2581.18 -2846.60 -3278.23 -3492.25 -3721.62 -3801.75 -3865.33 -3931.73 -3957.29 -3970.48 -3972.01 -3971.64 -3970.91 -3969.44 -3967.26 -3967.34
-5902.74 -5902.66 -5912.15 -5918.97 -5924.26 -5934.66 -5944.10 -5951.85 -5963.44 -5965.72 -5956.28 -5923.21 -5873.56 -5668.11 -5252.20 -4800.77 -4138.74 -3741.57 -3115.37 -2489.94 -2063.04 -1940.55 -2057.57 -1652.13 -362.87 -262.59 -112.92 -33.57 -18.36 -1.10 46.93 80.40 98.16 135.64 175.25 214.33 284.76 322.89 339.90 392.17 500.74 542.66 636.50 630.51 565.19 523.47 488.96 444.20 383.11 356.32 320.65 301.66 280.22 256.58 241.89 230.70 229.79 238.45 251.85 246.29 244.37 235.56 225.52 218.56 210.84 201.72 193.83 183.29 176.58 170.22 165.33 164.74 165.68 164.90 173.42 179.02 191.82 210.78 229.09 237.98 282.60 291.30 313.98 345.49 368.93 393.04 425.50 448.65 470.20 503.86 523.43 545.40 560.42 579.92 581.29 606.89 615.93 620.93 623.85 634.83 690.14 740.74 590.00 408.99 334.29 228.16 180.62 138.06 95.25 34.24 -56.90 -2124.79 -4042.56 -4062.14 -3772.84 -3809.29 -3921.34 -3941.88 -3973.72 -3378.49 -2718.15 -1806.89 -1767.19 -1985.78 -2398.24 -2658.73 -2948.71 -3244.56 -3446.33 -3657.09 -3804.75 -3854.37 -3934.72 -3959.85 -3972.84 -3977.09 -3976.71 -3977.56 -3975.94 -3976.57 -3977.36
-5916.81 -5916.72 -5925.45 -5932.29 -5937.63 -5947.03 -5959.00 -5967.52 -5973.13 -5963.75 -5926.21 -5795.66 -5439.10 -5269.91 -4763.04 -4084.33 -3587.50 -2938.21 -2400.59 -2152.97 -1886.36 -1867.44 -1748.92 -1308.22 -512.76 -304.72 -164.39 -52.84 -12.51 -0.63 41.73 86.11 116.38 127.87 203.22 239.13 325.73 428.08 429.59 409.40 452.13 554.64 649.58 578.61 522.05 501.88 451.20 428.32 389.12 362.55 336.61 305.55 297.75 270.27 260.67 261.02 255.09 257.12 263.21 272.17 274.96 256.15 246.66 238.23 228.68 212.39 209.67 195.86 189.15 179.10 173.30 169.32 171.02 171.06 176.31 181.02 193.11 211.31 225.47 245.24 280.88 297.65 324.57 352.94 370.07 398.38 425.15 460.04 480.99 520.76 545.49 570.00 591.56 600.82 618.62 635.11 640.94 634.95 636.77 684.22 767.84 648.12 589.74 394.93 269.94 204.20 182.07 122.50 94.22 48.31 -68.52 -149.76 -4041.51 -3767.52 -3611.83 -3601.60 -3802.37 -3806.93 -3774.39 -3156.58 -2118.33 -1673.60 -1652.03 -2123.41 -2511.19 -2859.06 -3096.61 -3321.39 -3483.35 -3627.58 -3769.75 -3860.48 -3913.07 -3962.15 -3980.90 -3983.79 -3984.80 -3986.00 -3990.82 -3991.01 -3991.09
-5939.65 -5939.55 -5945.46 -5948.56 -5960.70 -5968.85 -5975.35 -5980.89 -5980.90 -5987.10 -5907.99 -5637.88 -5080.63 -4398.85 -3648.30 -3445.71 -3123.23 -2844.44 -2364.01 -2112.08 -1920.34 -1951.51 -1239.99 -753.94 -495.21 -291.19 -180.77 -50.85 -12.64 11.84 51.98 104.94 149.53 193.66 203.12 255.90 354.47 451.56 503.71 504.36 503.75 609.32 642.80 566.79 512.91 508.69 454.57 403.66 391.10 363.54 345.15 323.86 311.93 288.72 273.12 274.37 271.39 278.05 287.39 295.13 295.62 269.13 260.33 246.55 237.96 222.45 219.67 206.16 195.06 187.27 175.38 175.03 174.23 174.57 176.78 182.00 190.36 207.20 221.33 249.68 288.39 304.04 333.01 351.65 390.00 417.72 438.27 472.14 505.71 537.65 565.31 583.32 626.12 635.31 646.51 676.87 677.47 684.84 690.26 838.66 731.46 554.63 407.00 282.77 228.44 212.12 160.06 121.88 77.13 48.09 -27.08 -237.38 -3448.93 -3823.05 -3438.40 -3460.39 -3549.18 -3686.88 -3386.56 -2744.41 -1909.62 -1570.66 -1723.38 -2321.92 -2697.50 -2987.85 -3184.90 -3405.68 -3553.98 -3650.17 -3778.97 -3835.67 -3920.64 -3965.35 -3990.39 -3995.98 -3999.13 -4000.89 -4005.37 -4007.59 -4007.68
-5968.30 -5967.86 -5971.12 -5974.12 -5981.37 -5986.41 -6017.87 -6025.44 -6032.32 -6041.43 -5854.15 -5572.56 -4741.62 -4083.82 -3597.36 -3387.49 -3242.65 -2968.59 -2505.81 -2118.22 -1985.15 -1587.77 -921.97 -324.36 -286.18 -182.34 -117.41 -25.64 -5.60 22.25 68.06 120.89 222.14 256.91 266.47 276.95 347.03 380.57 484.91 534.42 639.78 663.99 606.21 521.81 491.53 467.59 450.00 416.17 387.61 356.84 346.01 329.54 320.51 304.41 293.60 295.54 319.68 324.98 327.56 315.63 312.99 299.85 281.15 266.62 255.22 235.96 223.79 211.37 203.82 194.24 180.66 175.44 175.06 175.55 178.45 182.23 192.72 210.39 221.60 249.14 283.89 304.87 350.64 372.72 397.30 439.47 454.05 484.54 518.95 555.36 582.28 610.05 635.56 649.83 676.83 685.73 702.60 717.01 810.77 919.98 870.66 612.61 387.73 267.63 237.15 182.51 138.06 126.42 73.35 40.51 -111.26 -263.90 -2980.91 -3555.10 -3307.60 -3327.98 -3533.01 -3549.20 -2846.85 -2045.57 -1463.20 -1460.68 -1762.66 -2326.21 -2759.10 -3115.41 -3469.73 -3589.27 -3621.94 -3694.50 -3811.41 -3889.74 -3952.44 -3988.34 -4004.37 -4010.26 -4007.63 -4017.56 -4025.21 -4026.42 -4026.52
-6023.06 -6022.93 -6027.94 -6024.11 -6024.20 -6031.07 -6030.75 -6013.93 -6050.08 -5860.92 -5587.18 -5181.94 -4683.38 -4042.24 -3777.66 -3619.09 -3570.13 -3281.63 -2471.85 -2007.04 -1908.89 -1169.05 -542.76 -280.34 -199.38 -144.16 -85.91 -21.87 -3.04 39.19 111.74 151.66 195.09 261.24 296.63 313.64 350.83 353.44 393.68 475.94 607.49 599.94 534.80 509.93 470.84 425.46 420.64 399.85 379.44 364.21 347.91 328.97 324.28 325.00 313.36 309.97 344.48 391.58 388.19 363.84 342.02 324.71 303.02 274.93 261.25 249.35 236.55 228.23 215.02 198.20 188.26 180.15 176.31 176.51 179.66 184.96 196.95 214.61 225.38 257.73 279.11 314.71 364.81 391.75 414.54 455.17 475.65 504.70 530.59 561.52 599.86 618.59 662.95 691.76 713.69 729.04 754.12 882.97 920.37 954.38 994.09 541.04 370.29 271.04 206.56 172.62 137.19 93.48 29.95 -39.47 -150.23 -449.63 -3948.11 -3285.98 -3088.32 -3139.97 -3276.97 -3318.87 -2466.07 -1623.37 -1344.77 -1497.14 -2022.54 -2552.30 -2887.51 -3253.34 -3450.80 -3663.19 -3707.11 -3762.54 -3882.73 -3937.33 -3983.28 -4011.16 -4017.63 -4019.73 -4029.40 -4036.03 -4042.79 -4046.32 -4046.42
-6143.67 -6140.56 -6089.77 -6000.77 -5983.75 -5981.34 -5907.95 -5690.56 -5590.01 -5382.29 -4984.86 -4517.86 -4452.96 -4185.19 -4171.93 -3943.74 -3884.84 -3615.92 -2792.75 -1985.41 -1404.49 -645.38 -422.64 -245.57 -205.54 -117.14 -41.59 -11.45 17.65 42.68 78.35 134.78 192.65 220.81 272.37 325.94 399.68 443.07 421.92 490.77 570.66 609.67 503.22 471.90 462.81 409.18 393.55 377.18 371.33 350.50 341.80 328.92 325.72 332.05 332.52 341.50 371.52 422.08 443.08 422.22 374.54 350.71 333.96 283.80 273.89 257.28 251.08 237.07 223.77 202.55 192.89 184.14 178.61 177.14 179.69 188.42 197.19 210.79 244.82 272.16 293.86 325.86 360.14 387.90 421.01 465.39 502.77 510.71 537.85 577.93 616.39 651.25 683.53 714.66 749.82 759.97 859.71 979.26 933.15 810.42 854.12 519.87 327.01 206.04 169.33 139.34 109.29 66.25 19.70 -83.41 -259.08 -1703.88 -3969.98 -3132.47 -3040.67 -3098.90 -3013.05 -2830.84 -2009.25 -1404.72 -1258.75 -1699.31 -2069.49 -2631.98 -3026.32 -3364.46 -3565.76 -3682.27 -3732.82 -3805.74 -3917.18 -3993.43 -4018.91 -4020.17 -4033.03 -4038.23 -4045.19 -4054.47 -4057.28 -4067.40 -4067.51
-6031.55 -6031.61 -5771.34 -5697.19 -5609.11 -5388.63 -5250.99 -5003.28 -4782.48 -4630.80 -4594.71 -4427.77 -4355.64 -4351.31 -4355.66 -4311.48 -4178.17 -3762.30 -2983.15 -2190.24 -1048.07 -607.37 -317.85 -252.24 -195.15 -104.01 -40.38 -11.00 22.12 35.90 73.23 151.73 211.78 284.99 324.62 389.72 497.02 564.28 539.80 550.49 538.51 556.92 486.46 442.90 430.06 385.32 381.16 360.30 351.84 339.35 332.23 326.14 321.60 322.14 327.21 352.90 385.81 424.15 468.38 469.69 440.14 414.46 354.19 315.03 287.19 279.51 259.21 254.88 234.69 216.06 201.84 188.58 181.12 177.70 182.46 190.29 201.27 215.45 235.95 264.57 308.39 336.35 364.72 384.73 428.70 459.96 494.97 531.51 573.96 587.38 636.94 673.72 686.65 732.61 757.03 766.66 947.28 899.00 769.45 557.62 403.03 310.72 263.06 205.49 158.74 124.29 97.95 33.03 -37.84 -121.53 -504.02 -1759.72 -4279.77 -3295.10 -3030.57 -3081.66 -2846.77 -2292.93 -1747.20 -1218.29 -1251.28 -1815.22 -2401.56 -2878.44 -3069.68 -3293.33 -3531.07 -3701.97 -3798.00 -3886.47 -3926.75 -3996.23 -4033.22 -4046.17 -4045.66 -4057.04 -4068.02 -4073.20 -4089.47 -4086.92 -4087.03
-5169.19 -5170.36 -5136.34 -4941.58 -4961.90 -4636.90 -4600.16 -4487.27 -4472.91 -4432.07 -4411.68 -4400.40 -4406.42 -4409.13 -4402.09 -4403.54 -4330.70 -4066.16 -3233.31 -2551.45 -1058.33 -510.22 -311.84 -250.79 -213.35 -116.49 -49.11 -7.84 18.70 32.99 53.51 154.16 206.84 244.93 361.48 471.08 569.10 573.76 510.72 483.66 491.69 485.72 418.03 393.63 375.73 363.04 349.52 342.65 339.20 326.77 325.64 316.08 315.89 318.15 323.46 341.34 361.85 401.79 432.76 490.76 509.53 410.69 353.32 328.90 313.32 289.80 278.31 264.54 237.10 228.85 212.16 194.09 183.37 179.17 185.98 194.41 205.15 219.69 234.62 270.96 304.72 342.30 373.27 395.71 420.90 463.95 492.72 553.90 575.92 611.35 656.50 679.81 730.71 764.05 772.04 915.18 940.81 746.82 546.54 486.22 340.02 285.29 242.62 192.65 138.21 94.89 76.39 -1.68 -86.85 -370.98 -1220.28 -3423.13 -4453.01 -4133.35 -3377.53 -3362.30 -2831.15 -2093.98 -1489.51 -1044.28 -1289.84 -1768.39 -2356.19 -2831.16 -3014.72 -3286.43 -3559.54 -3799.60 -3885.51 -3942.39 -3986.29 -4016.37 -4059.73 -4068.39 -4065.44 -4065.53 -4078.12 -4095.80 -4099.50 -4106.51 -4106.62
-4480.58 -4481.74 -4525.40 -4574.94 -4496.95 -4451.52 -4420.08 -4407.13 -4414.29 -4422.45 -4419.30 -4421.58 -4424.46 -4428.88 -4429.94 -4435.71 -4419.57 -4282.50 -3962.59 -2481.95 -942.89 -367.64 -311.50 -263.27 -210.01 -133.50 -57.20 -12.32 5.20 25.62 44.32 143.69 236.45 318.60 419.01 423.45 425.34 530.15 500.29 388.79 437.41 443.35 384.70 346.86 342.50 337.99 328.33 328.01 322.11 308.09 310.87 304.71 301.54 306.52 324.13 327.51 353.02 374.51 411.62 454.71 490.04 426.38 403.76 356.81 338.86 314.64 286.37 273.35 248.84 235.68 210.03 193.72 185.25 179.56 185.76 197.45 202.61 220.01 234.24 276.78 304.38 339.30 361.07 388.33 446.95 471.33 503.19 553.33 590.91 607.46 674.85 689.55 748.94 780.37 845.28 977.27 948.78 798.10 504.54 375.39 309.60 272.62 201.84 172.63 121.37 87.37 44.67 -12.60 -66.41 -337.77 -1593.86 -4328.96 -4768.75 -4976.64 -4806.68 -4305.38 -2980.74 -1756.61 -1058.09 -1044.42 -1295.72 -1816.74 -2176.48 -2833.09 -2995.08 -3345.60 -3581.44 -3857.36 -3967.94 -4006.44 -4047.62 -4056.35 -4078.31 -4077.65 -4081.85 -4097.04 -4107.81 -4108.04 -4117.92 -4125.34 -4125.47
-4414.82 -4414.83 -4433.33 -4433.84 -4435.63 -4435.93 -4434.12 -4436.82 -4437.28 -4434.19 -4433.93 -4437.23 -4444.32 -4446.99 -4451.83 -4458.08 -4438.42 -4372.07 -4169.05 -2398.35 -1585.61 -484.14 -340.92 -286.81 -233.14 -162.63 -78.77 -19.68 -10.85 2.55 40.85 90.04 150.36 176.10 351.01 353.31 329.67 390.63 397.44 365.52 392.46 387.45 367.85 327.53 305.46 298.96 302.16 304.05 293.65 296.03 298.00 293.86 295.31 299.77 313.19 332.85 346.13 365.81 380.22 455.82 528.03 498.06 431.12 399.92 372.84 339.12 295.97 281.11 259.01 239.51 212.58 196.52 186.84 180.30 184.95 199.15 212.06 229.55 240.54 282.50 308.56 326.47 373.72 399.26 437.19 467.48 516.78 545.71 578.05 629.18 661.19 704.94 745.94 777.50 846.12 951.47 907.12 621.17 371.96 347.45 295.73 246.93 199.12 170.53 141.26 96.52 56.60 0.22 -72.51 -190.76 -2151.97 -4223.91 -4849.50 -5223.51 -5151.75 -4502.17 -2443.86 -1399.27 -863.83 -994.17 -1325.53 -1872.22 -2111.12 -2748.56 -3091.74 -3403.22 -3738.93 -3880.84 -4040.89 -4060.72 -4074.49 -4078.95 -4099.11 -4098.91 -4109.69 -4120.10 -4120.99 -4126.70 -4130.72 -4141.67 -4141.81
-4457.29 -4456.96 -4460.74 -4460.66 -4463.29 -4464.34 -4461.21 -4454.24 -4455.59 -4454.12 -4450.70 -4451.30 -4458.58 -4461.89 -4462.75 -4467.11 -4452.94 -4416.69 -4138.89 -3378.87 -1421.71 -425.07 -345.82 -270.57 -244.40 -189.00 -108.87 -78.12 -36.87 -15.23 12.47 63.19 82.12 150.19 220.30 213.65 248.36 297.69 307.94 290.62 287.15 292.90 291.41 290.15 283.68 275.11 274.58 279.27 283.41 279.68 281.05 280.12 289.02 297.76 312.21 326.70 346.67 361.64 386.92 455.32 492.86 500.52 507.09 457.53 417.31 347.82 315.68 287.74 279.51 247.22 219.28 206.02 186.05 181.39 184.67 202.26 212.69 234.59 251.71 285.85 308.56 342.48 384.68 427.15 460.12 487.90 526.37 539.25 589.93 628.85 668.22 692.85 739.82 811.31 929.17 869.14 704.42 514.28 343.69 311.55 252.41 225.55 187.49 158.18 130.08 85.97 35.82 -35.97 -71.20 -335.08 -2924.97 -4069.33 -5293.20 -5420.61 -5216.95 -4300.39 -2593.98 -1129.51 -751.57 -836.29 -1215.45 -1480.34 -2123.72 -2625.37 -3108.30 -3443.36 -3883.57 -3989.47 -4070.15 -4087.83 -4088.31 -4115.06 -4116.88 -4115.96 -4128.79 -4135.24 -4136.50 -4142.76 -4148.90 -4157.70 -4157.88
-4474.15 -4474.14 -4476.74 -4481.40 -4479.30 -4477.51 -4475.45 -4483.21 -4474.32 -4471.98 -4474.13 -4469.33 -4471.00 -4471.69 -4475.41 -4477.12 -4455.65 -4298.11 -3969.44 -3314.84 -2017.05 -614.19 -377.12 -288.33 -276.81 -203.88 -174.83 -158.59 -81.38 -29.80 5.63 15.39 39.09 125.02 210.68 198.25 158.10 175.56 210.96 206.29 228.49 238.24 232.24 256.44 257.39 254.62 263.38 260.17 258.23 267.17 269.91 274.10 281.42 293.23 307.48 322.61 342.54 361.38 377.26 447.16 468.46 506.98 576.02 493.12 459.48 372.71 362.77 333.50 294.93 258.05 219.00 216.44 190.76 181.33 184.82 198.38 211.73 228.76 260.63 288.98 323.69 355.96 378.37 406.95 463.05 485.37 525.01 547.03 593.76 623.24 660.76 700.82 776.61 965.10 1030.80 938.65 724.13 643.11 422.33 275.05 223.71 199.78 154.33 132.35 88.80 39.61 -14.62 -37.96 -170.68 -399.59 -2410.61 -5442.01 -5633.01 -5486.44 -5181.08 -3877.59 -2028.92 -782.50 -694.92 -787.54 -1166.24 -1587.20 -2276.56 -2650.12 -3215.29 -3502.43 -3762.48 -4014.14 -4085.62 -4117.09 -4115.06 -4135.73 -4137.78 -4143.47 -4153.05 -4152.81 -4153.12 -4154.95 -4161.80 -4172.73 -4172.85
-4497.57 -4497.79 -4499.54 -4499.05 -4503.28 -4497.78 -4493.60 -4494.16 -4484.95 -4481.64 -4488.88 -4489.40 -4485.61 -4485.63 -4484.40 -4478.12 -4407.17 -4143.05 -3731.53 -2960.26 -1022.74 -486.99 -363.67 -330.47 -303.22 -249.44 -226.73 -189.07 -125.28 -54.15 -0.64 2.36 20.00 65.15 157.52 142.93 121.58 137.97 154.81 164.04 179.83 188.91 198.95 220.31 222.30 235.99 233.99 238.57 242.96 249.77 258.42 269.86 278.15 292.35 303.78 312.31 334.65 351.19 392.78 416.11 467.62 501.39 557.43 535.01 479.49 461.59 448.77 384.34 310.71 281.66 225.91 221.00 191.92 183.02 186.23 196.67 208.79 222.36 260.03 281.25 323.18 351.81 374.54 412.00 456.04 483.47 524.96 549.14 596.42 624.38 669.83 707.19 788.62 922.36 912.29 840.45 611.72 368.07 278.80 219.75 208.13 155.75 138.14 114.77 82.08 16.88 -17.25 -79.46 -196.83 -443.13 -1604.75 -4471.26 -5408.59 -5249.24 -5364.36 -4548.84 -1472.89 -1030.02 -706.82 -826.32 -1117.63 -1609.87 -2258.66 -2774.36 -3319.15 -3633.11 -3846.40 -4081.22 -4115.96 -4131.63 -4149.05 -4161.01 -4154.42 -4157.74 -4161.52 -4163.55 -4163.66 -4173.76 -4177.76 -4186.64 -4186.67
-4517.41 -4517.35 -4517.52 -4518.38 -4519.33 -4519.83 -4517.98 -4516.05 -4515.14 -4509.38 -4500.10 -4496.01 -4492.74 -4495.49 -4495.15 -4475.56 -4370.22 -4034.44 -3074.30 -2025.73 -1083.60 -497.33 -419.87 -373.52 -329.35 -272.78 -239.35 -204.28 -142.89 -57.56 -27.63 -25.03 -10.19 4.45 53.48 72.01 85.24 114.90 124.42 130.47 148.71 175.97 176.77 179.60 204.23 206.13 213.39 219.16 225.76 236.53 246.01 256.63 273.15 277.57 298.76 311.84 331.68 351.36 373.79 390.57 435.80 478.57 491.91 483.16 456.06 455.63 456.73 381.69 333.98 274.00 237.53 216.84 189.09 184.54 183.59 193.87 207.73 222.78 249.97 286.20 303.74 347.04 378.24 413.93 448.24 478.84 532.23 545.58 581.05 635.61 680.35 701.19 865.80 885.86 621.61 506.29 491.62 309.58 231.83 215.39 160.00 134.27 117.82 92.51 34.74 -14.90 -63.71 -139.20 -250.56 -636.58 -987.09 -4519.73 -4843.55 -5509.99 -5614.78 -4618.24 -2729.27 -1588.28 -1014.25 -1078.75 -1361.23 -1682.15 -2381.52 -2977.72 -3471.72 -3722.70 -3977.90 -4101.13 -4136.78 -4145.54 -4164.35 -4167.83 -4178.96 -4176.22 -4174.77 -4174.26 -4179.86 -4184.26 -4190.06 -4199.34 -4199.40
-4532.54 -4532.47 -4532.11 -4534.84 -4532.50 -4532.19 -4527.69 -4524.27 -4523.04 -4518.89 -4515.03 -4509.12 -4506.19 -4503.66 -4501.14 -4476.38 -4338.51 -3856.93 -2538.63 -1832.71 -1202.41 -776.82 -434.94 -402.50 -344.61 -290.39 -255.87 -220.67 -154.77 -88.31 -80.66 -70.03 -22.58 -0.90 25.14 59.22 64.53 80.84 96.13 106.37 110.92 128.17 153.29 150.83 170.58 179.42 190.08 202.78 209.83 223.97 232.45 249.28 267.27 272.91 291.63 306.75 325.02 343.55 363.64 375.33 407.14 451.59 444.85 402.73 391.82 418.96 385.98 363.49 316.52 249.72 230.82 212.00 190.31 184.32 181.40 196.11 212.79 229.41 243.47 254.99 294.79 312.01 377.21 394.29 448.45 467.54 503.98 546.82 577.59 619.01 699.83 800.95 917.15 900.91 630.87 449.98 408.10 241.66 210.00 177.21 146.31 122.66 106.29 65.95 19.74 -16.98 -142.54 -174.28 -327.86 -765.87 -2028.40 -4529.57 -5566.46 -5748.86 -5661.99 -5107.81 -3909.93 -2550.48 -2207.03 -1366.45 -1730.97 -2014.46 -2564.38 -3134.57 -3467.62 -3830.08 -4065.54 -4135.51 -4148.57 -4164.54 -4181.65 -4198.34 -4200.49 -4191.30 -4187.78 -4190.44 -4194.08 -4197.99 -4204.39 -4211.11 -4211.18
-4545.18 -4545.10 -4545.30 -4548.07 -4545.94 -4543.33 -4541.05 -4539.59 -4536.91 -4532.33 -4525.92 -4521.74 -4513.86 -4511.58 -4509.55 -4481.23 -4304.63 -3963.25 -2775.46 -1956.72 -1300.89 -890.35 -553.52 -410.40 -362.90 -306.00 -288.53 -221.56 -199.59 -156.56 -122.27 -85.76 -27.95 -14.03 -7.03 19.45 47.19 60.33 84.34 99.49 102.66 101.61 106.84 117.10 152.40 158.54 173.07 181.99 195.66 210.95 222.50 234.51 252.06 268.46 286.99 300.94 320.33 338.10 352.90 372.39 398.56 418.18 426.85 387.49 365.39 376.62 371.12 320.25 305.45 258.55 234.31 216.86 196.38 184.25 181.46 192.58 209.24 224.84 232.50 262.41 295.94 329.21 374.07 390.17 425.47 467.73 495.09 522.28 577.13 612.46 688.54 785.59 749.17 642.59 468.69 344.57 270.25 213.08 181.94 153.30 139.43 110.42 72.23 49.87 15.38 -50.71 -174.11 -292.75 -393.20 -1872.24 -3480.65 -4586.55 -5521.47 -5739.31 -5763.99 -5646.20 -5208.72 -3646.86 -2877.86 -2351.36 -2021.43 -2394.32 -2812.41 -3388.76 -3711.22 -3967.76 -4123.86 -4149.14 -4171.51 -4184.06 -4200.25 -4207.54 -4210.93 -4203.52 -4200.89 -4199.88 -4202.55 -4208.92 -4214.23 -4221.90 -4221.98
-4556.83 -4556.75 -4557.88 -4555.94 -4560.41 -4556.57 -4554.18 -4550.49 -4547.40 -4541.46 -4539.21 -4531.37 -4523.36 -4519.87 -4515.05 -4498.34 -4392.75 -4223.33 -3509.11 -2878.22 -1552.91 -1065.62 -858.72 -608.94 -436.02 -338.44 -288.85 -262.35 -224.32 -182.69 -153.42 -83.51 -39.86 -26.50 -17.26 -2.70 23.51 29.53 63.39 60.97 73.27 96.76 103.36 101.57 121.96 138.71 152.38 162.86 178.90 190.15 211.71 229.89 248.80 266.31 282.82 297.12 316.19 348.66 374.46 384.98 381.92 391.42 390.90 365.77 339.66 336.32 318.56 306.20 275.81 247.90 221.39 210.98 198.66 182.28 179.23 184.92 203.66 220.57 228.03 263.20 307.80 328.54 362.19 387.57 417.87 456.30 492.35 525.65 564.81 629.79 719.13 701.20 529.86 356.65 336.49 251.37 233.98 198.62 168.08 145.97 122.42 86.87 52.04 32.42 -4.84 -74.52 -257.39 -540.22 -574.04 -1677.05 -3782.00 -5260.88 -5494.53 -5723.64 -5776.75 -5783.68 -5684.07 -5195.34 -3981.57 -3237.18 -2520.79 -2779.20 -3140.46 -3397.62 -3856.12 -4123.15 -4132.24 -4158.60 -4176.44 -4188.96 -4208.68 -4227.84 -4224.56 -4217.54 -4209.78 -4208.65 -4212.17 -4216.42 -4225.39 -4232.34 -4232.42
-4568.00 -4568.36 -4569.41 -4569.24 -4568.50 -4569.56 -4564.27 -4560.84 -4560.95 -4549.16 -4544.58 -4539.17 -4532.25 -4526.82 -4516.98 -4507.97 -4439.71 -4262.83 -3864.85 -3402.17 -2897.47 -1972.49 -1371.06 -853.71 -496.63 -376.95 -320.42 -284.60 -251.31 -220.21 -163.24 -119.38 -56.95 -47.80 -39.05 -21.54 5.08 16.52 27.36 43.09 52.07 67.01 82.51 91.07 98.23 110.56 147.64 144.27 158.81 179.33 200.22 227.77 236.57 257.81 271.54 309.17 350.42 367.69 386.53 376.47 358.55 351.05 341.75 338.91 328.22 304.78 285.10 269.77 261.45 247.95 219.96 209.91 195.51 183.82 178.98 181.53 199.33 215.29 229.51 248.18 288.66 314.94 350.59 394.34 414.10 430.51 487.93 514.79 538.85 612.77 634.23 498.05 364.39 296.25 251.30 228.10 207.72 181.19 147.90 105.18 97.53 72.17 49.00 10.42 -48.33 -109.57 -358.89 -814.58 -1242.09 -2387.92 -4264.66 -5224.13 -5669.26 -5797.80 -5806.11 -5828.96 -5756.12 -5585.50 -4599.63 -3559.02 -2842.10 -3047.46 -3414.55 -3652.79 -3925.17 -4096.84 -4151.62 -4174.64 -4190.26 -4209.44 -4220.48 -4235.14 -4231.73 -4224.21 -4218.91 -4223.56 -4226.27 -4227.77 -4233.60 -4241.57 -4241.65
-4578.78 -4578.70 -4579.79 -4580.90 -4581.11 -4578.73 -4577.92 -4571.15 -4568.59 -4565.55 -4558.80 -4550.22 -4537.20 -4532.89 -4527.03 -4522.51 -4502.90 -4472.10 -4290.73 -4157.49 -3472.56 -2493.86 -1750.46 -1130.55 -534.41 -390.40 -351.90 -318.64 -278.75 -247.23 -195.68 -144.23 -119.38 -79.02 -59.84 -44.49 -27.53 -5.78 9.67 24.26 31.75 41.99 51.95 72.37 83.76 92.31 124.45 132.73 137.05 162.16 184.89 212.14 227.31 250.26 288.16 319.61 371.70 414.89 407.32 364.75 341.86 324.67 320.63 311.58 307.23 295.96 280.38 255.68 244.48 233.75 216.87 207.05 189.50 180.91 178.76 180.37 189.64 210.21 221.40 243.57 283.29 304.62 339.28 374.37 407.69 444.29 479.71 510.86 541.42 600.70 568.15 403.63 308.71 226.82 212.61 175.99 180.41 154.07 110.66 79.50 65.54 44.45 20.81 -37.62 -112.18 -214.25 -517.87 -1068.91 -1855.13 -2467.53 -4281.84 -5059.12 -5564.93 -5752.51 -5800.37 -5842.80 -5828.99 -5701.97 -4763.30 -3946.11 -3054.17 -3195.84 -3474.82 -3799.17 -3988.62 -4134.80 -4174.17 -4181.51 -4196.39 -4218.97 -4230.79 -4244.51 -4240.29 -4234.65 -4231.22 -4230.80 -4230.38 -4234.69 -4240.04 -4250.01 -4250.09
-4589.19 -4589.73 -4590.02 -4590.58 -4588.52 -4586.73 -4585.52 -4583.60 -4578.71 -4572.64 -4563.99 -4557.88 -4549.74 -4543.97 -4536.61 -4527.71 -4517.32 -4503.13 -4458.62 -4239.48 -4022.17 -3216.13 -1761.85 -1244.98 -784.69 -637.10 -490.28 -359.90 -325.42 -264.31 -211.99 -192.28 -148.94 -118.56 -108.17 -85.73 -43.77 -27.43 -24.86 8.36 14.92 20.04 31.18 46.83 62.00 78.82 100.17 115.90 127.88 158.72 172.60 203.92 233.09 258.19 302.97 332.92 399.74 436.41 421.28 373.82 341.36 319.77 308.46 298.38 293.09 281.05 265.66 251.53 236.77 218.67 206.81 189.80 181.58 177.09 176.82 176.87 186.31 202.74 211.26 247.76 269.54 294.62 306.41 353.75 398.28 435.71 464.94 506.50 547.00 603.43 470.98 355.10 267.19 210.42 187.94 152.15 121.95 106.54 83.14 67.11 50.73 31.26 7.01 -50.75 -114.35 -287.12 -1011.59 -1392.21 -1925.20 -2954.39 -4407.94 -4858.74 -5326.09 -5616.97 -5811.35 -5860.14 -5838.83 -5753.63 -4885.31 -3976.23 -3207.55 -3300.32 -3535.56 -3829.26 -4060.63 -4144.84 -4168.85 -4189.47 -4205.53 -4222.64 -4243.58 -4255.23 -4250.47 -4241.29 -4239.16 -4236.62 -4237.26 -4244.91 -4250.12 -4257.88 -4257.95
-4599.22 -4599.15 -4599.11 -4601.73 -4603.69 -4602.87 -4595.65 -4594.29 -4589.66 -4583.33 -4576.38 -4568.17 -4562.20 -4550.89 -4546.25 -4537.82 -4530.37 -4527.23 -4515.39 -4432.09 -4256.50 -3413.06 -2388.81 -1567.90 -1001.04 -857.15 -739.91 -511.00 -388.04 -341.19 -252.81 -246.59 -212.50 -193.78 -164.59 -138.74 -89.55 -51.93 -34.77 -8.66 -4.09 -1.97 -1.76 23.11 49.68 58.78 72.72 99.59 110.78 139.31 154.71 185.77 223.97 271.85 335.68 338.16 427.80 457.41 425.24 367.53 333.29 304.20 293.46 280.18 267.41 258.48 251.86 247.88 225.88 211.44 196.38 181.21 176.84 173.12 173.04 173.09 176.19 192.01 199.00 239.60 262.11 280.37 305.55 335.97 377.70 404.63 459.76 482.75 543.65 766.50 730.58 363.59 279.30 197.96 170.26 154.37 97.60 80.58 70.66 41.14 17.03 7.18 -13.17 -126.23 -279.61 -395.33 -1211.98 -1388.93 -2374.53 -3273.22 -4148.08 -5154.14 -5571.13 -5643.21 -5816.89 -5862.30 -5837.77 -5681.88 -4668.26 -3872.26 -3165.35 -3181.11 -3563.21 -3882.95 -3983.70 -4143.01 -4187.85 -4198.20 -4219.68 -4233.65 -4250.58 -4263.70 -4257.93 -4249.00 -4245.69 -4247.83 -4248.71 -4252.69 -4256.87 -4265.60 -4265.68
-4608.93 -4608.86 -4609.87 -4611.09 -4610.60 -4609.27 -4608.84 -4604.06 -4599.71 -4594.11 -4590.44 -4576.26 -4571.03 -4566.67 -4553.75 -4547.48 -4537.11 -4533.82 -4517.87 -4491.17 -4130.68 -3465.92 -2368.83 -1409.80 -927.35 -900.32 -760.87 -668.72 -637.59 -629.91 -489.00 -293.85 -274.60 -244.16 -195.59 -155.07 -136.49 -103.69 -71.65 -64.29 -40.96 -21.77 -15.07 0.63 32.08 47.85 51.39 54.93 91.58 134.82 149.39 181.13 215.31 287.06 347.99 387.31 434.79 440.34 383.10 355.39 328.24 306.51 269.28 258.63 252.36 250.50 237.24 224.33 213.57 201.31 190.27 179.34 162.92 160.62 162.44 162.35 170.58 181.19 187.49 209.15 240.58 272.79 300.35 322.53 369.95 392.62 425.08 457.85 613.20 812.12 656.10 249.36 183.26 131.01 118.78 91.41 65.97 57.63 42.92 5.38 -17.60 -55.13 -96.86 -169.52 -373.66 -670.89 -1329.77 -1862.53 -2437.50 -2964.05 -4006.81 -4908.94 -5522.56 -5592.51 -5796.13 -5852.61 -5764.64 -5559.90 -4447.69 -3794.91 -3005.17 -3079.97 -3416.41 -3860.36 -4057.23 -4157.26 -4185.71 -4210.72 -4223.86 -4245.06 -4255.63 -4271.24 -4261.86 -4256.02 -4252.42 -4253.13 -4256.33 -4261.38 -4267.77 -4271.51 -4271.57
-4618.25 -4618.18 -4618.73 -4621.44 -4622.21 -4620.34 -4617.64 -4614.65 -4613.00 -4604.39 -4599.96 -4594.49 -4587.67 -4577.92 -4569.31 -4565.68 -4554.52 -4546.51 -4522.04 -4436.64 -3892.39 -3352.05 -2164.30 -1278.51 -979.03 -1055.83 -1199.34 -1047.93 -1052.20 -1282.64 -719.78 -445.28 -328.24 -277.73 -271.06 -213.87 -194.83 -162.74 -138.58 -105.35 -61.83 -36.62 -26.76 -15.44 5.71 16.28 34.74 48.31 65.06 110.43 139.36 187.53 240.63 305.43 362.74 387.75 370.89 351.81 325.95 301.79 301.40 273.10 257.02 234.89 234.10 230.46 221.95 217.49 205.09 187.53 175.98 161.99 153.74 149.45 152.18 155.64 158.91 167.00 179.50 204.04 226.69 257.52 279.80 295.81 334.38 363.93 401.32 435.15 524.52 748.23 449.45 192.64 136.37 90.48 71.68 66.06 45.73 27.52 -6.34 -18.22 -70.20 -126.08 -136.62 -296.53 -505.44 -1102.20 -1626.89 -2095.99 -2825.55 -3692.31 -4255.86 -5197.89 -5462.40 -5604.83 -5742.19 -5854.11 -5806.67 -5358.17 -4352.87 -3491.02 -3052.63 -3207.71 -3603.93 -3907.39 -4156.13 -4181.97 -4198.28 -4215.97 -4228.79 -4254.39 -4265.81 -4278.60 -4265.40 -4262.51 -4259.19 -4260.30 -4265.48 -4267.56 -4272.50 -4277.17 -4277.24
-4627.10 -4627.78 -4629.75 -4629.17 -4629.91 -4628.35 -4628.47 -4624.32 -4624.50 -4619.69 -4615.59 -4609.75 -4607.12 -4591.38 -4582.65 -4578.16 -4572.68 -4567.04 -4530.42 -4372.59 -3901.90 -3000.64 -2044.72 -1496.71 -1529.70 -1596.11 -1624.64 -1685.27 -1905.20 -2084.40 -1781.31 -900.72 -534.97 -368.70 -316.87 -258.17 -247.55 -219.55 -172.23 -134.74 -90.75 -72.64 -43.82 -25.73 3.83 11.22 29.61 44.02 53.25 73.25 156.87 215.64 282.46 348.86 288.40 280.97 281.64 276.81 276.43 264.77 281.53 234.16 227.43 221.71 219.12 217.38 212.22 207.78 194.83 176.07 165.07 152.25 146.35 138.57 136.17 141.37 141.66 152.50 162.28 180.22 211.12 246.82 271.35 299.01 321.07 340.31 386.31 505.89 692.99 613.67 265.64 215.14 117.83 67.55 65.06 46.04 21.74 -22.95 -28.77 -64.48 -115.69 -213.81 -475.21 -402.97 -795.65 -1502.27 -1814.74 -2201.82 -2671.71 -4195.51 -4842.44 -5359.67 -5569.15 -5643.63 -5723.54 -5815.55 -5695.40 -5517.30 -4027.02 -3219.62 -3258.86 -3717.75 -3881.80 -4047.89 -4168.83 -4197.11 -4208.17 -4227.59 -4243.17 -4260.61 -4279.40 -4288.96 -4279.43 -4266.33 -4267.29 -4269.65 -4272.83 -4275.79 -4279.06 -4282.31 -4282.38
-4635.41 -4635.34 -4635.87 -4636.27 -4638.42 -4642.00 -4638.72 -4635.93 -4635.67 -4629.59 -4629.19 -4623.48 -4620.11 -4612.12 -4605.52 -4597.68 -4594.51 -4582.21 -4566.95 -4433.97 -4067.02 -3184.38 -2505.02 -2194.04 -2221.65 -2479.91 -2638.35 -2789.57 -2838.63 -3409.75 -3566.58 -2082.84 -1209.61 -419.59 -354.46 -323.69 -292.20 -255.30 -209.21 -178.10 -169.30 -138.09 -117.36 -70.24 -23.59 -3.05 18.85 35.70 35.15 72.43 151.41 223.62 324.64 306.65 278.76 201.02 228.22 260.17 208.42 207.60 224.51 199.53 203.11 199.03 196.72 201.12 195.51 197.61 176.05 166.12 155.57 143.95 136.23 131.18 128.17 128.75 130.32 136.60 146.96 157.47 192.70 214.78 247.37 278.28 309.08 317.30 359.01 400.54 629.42 431.25 214.95 137.38 112.38 56.91 51.35 26.27 -4.43 -48.99 -87.06 -111.86 -280.19 -386.90 -924.45 -739.65 -1167.37 -1904.92 -2246.01 -2961.54 -3577.11 -4470.06 -5091.84 -5379.38 -5542.62 -5606.17 -5690.92 -5736.70 -5624.32 -4952.91 -3830.62 -3473.28 -3526.23 -3881.10 -4091.15 -4118.10 -4176.71 -4200.65 -4214.78 -4238.67 -4253.82 -4269.45 -4291.55 -4289.24 -4282.13 -4278.16 -4278.35 -4277.41 -4280.42 -4280.20 -4282.84 -4287.40 -4287.47
-4643.45 -4643.38 -4644.75 -4647.79 -4649.59 -4648.86 -4651.74 -4649.04 -4645.33 -4647.15 -4645.18 -4638.48 -4634.72 -4628.55 -4629.11 -4619.74 -4614.75 -4610.44 -4597.13 -4477.08 -4261.28 -3871.58 -3521.62 -3416.79 -3357.35 -3902.60 -3984.67 -3948.11 -4164.70 -4134.09 -4509.61 -4540.93 -2331.56 -736.78 -408.39 -389.01 -323.02 -285.43 -254.75 -243.44 -215.08 -176.21 -149.42 -96.94 -59.83 -40.92 -6.71 -2.52 8.98 47.21 89.18 196.61 285.99 246.05 183.94 152.31 189.38 179.75 166.24 166.69 179.80 176.59 180.52 181.09 181.47 182.99 180.43 169.33 162.96 153.80 138.47 134.43 127.86 117.64 116.21 118.14 117.95 119.12 141.10 156.62 183.16 202.35 229.12 243.07 296.84 302.25 321.66 373.91 438.59 214.57 156.06 127.43 77.89 51.66 28.62 -7.93 -15.73 -70.95 -132.25 -263.18 -583.61 -847.02 -1739.00 -1540.01 -1691.98 -2433.09 -2643.07 -3769.02 -4744.93 -5186.93 -5328.98 -5381.50 -5510.81 -5585.06 -5669.97 -5683.77 -5552.94 -4671.02 -3915.79 -3698.42 -3820.06 -3991.62 -4119.03 -4170.81 -4184.29 -4205.92 -4227.50 -4245.79 -4267.77 -4283.01 -4298.02 -4301.81 -4290.80 -4285.03 -4284.18 -4286.46 -4284.94 -4286.74 -4287.94 -4292.32 -4292.39
-4651.48 -4651.41 -4652.87 -4656.95 -4656.54 -4660.27 -4660.64 -4657.63 -4658.63 -4659.05 -4657.73 -4653.36 -4651.75 -4651.88 -4645.06 -4643.39 -4632.38 -4631.15 -4618.78 -4604.92 -4541.23 -4331.16 -4214.12 -4135.29 -4229.42 -4307.82 -4399.70 -4368.64 -4508.22 -4608.57 -4832.14 -4801.00 -3791.36 -2248.34 -1143.55 -586.79 -368.87 -316.96 -312.15 -276.28 -240.22 -209.40 -170.90 -176.12 -119.19 -79.91 -36.88 -12.68 -8.79 33.06 97.99 174.76 206.26 138.09 112.59 111.91 133.56 122.02 136.24 135.48 145.48 160.72 163.84 159.82 167.56 164.32 162.66 160.03 150.07 137.89 132.93 126.46 121.63 100.98 102.82 104.75 100.09 106.19 120.64 146.78 164.55 178.32 201.71 210.47 265.71 284.75 412.70 527.16 328.13 150.83 116.24 83.57 60.40 35.41 12.76 -8.74 -26.32 -75.53 -210.42 -620.27 -1370.94 -2160.14 -2065.68 -2075.17 -2486.23 -2763.01 -4024.85 -4591.86 -5235.43 -5451.16 -5442.87 -5398.64 -5441.49 -5495.11 -5613.44 -5761.18 -5429.51 -5039.43 -4115.37 -3717.51 -3988.97 -4096.31 -4155.86 -4184.36 -4198.02 -4215.12 -4235.53 -4261.71 -4278.48 -4293.47 -4302.87 -4306.66 -4298.74 -4295.04 -4293.56 -4291.36 -4291.55 -4293.16 -4293.41 -4297.93 -4297.99
-4659.75 -4659.68 -4662.07 -4665.36 -4665.76 -4670.45 -4672.13 -4673.96 -4673.35 -4670.78 -4673.55 -4673.78 -4667.66 -4668.36 -4666.93 -4671.18 -4662.70 -4661.11 -4659.30 -4640.84 -4650.29 -4643.19 -4568.33 -4564.24 -4578.19 -4596.12 -4595.69 -4618.51 -4627.06 -4706.19 -4787.04 -4844.89 -4066.27 -2383.16 -1040.03 -711.37 -433.21 -390.98 -348.33 -309.59 -270.50 -247.27 -239.61 -234.87 -177.53 -135.75 -97.38 -41.71 -16.18 12.57 52.37 89.23 92.53 65.40 94.44 92.83 93.62 95.25 102.15 103.79 115.60 120.31 141.88 135.45 146.59 150.73 152.09 146.83 141.01 131.05 127.16 115.18 101.18 91.59 83.74 80.83 76.34 81.96 101.84 116.90 141.38 158.21 176.82 203.23 214.46 228.03 441.11 466.52 185.79 105.27 86.16 59.88 46.52 6.99 -20.93 -39.11 -68.36 -132.32 -279.67 -747.58 -2206.01 -2372.29 -2370.11 -2319.69 -3148.79 -3900.04 -4645.88 -5201.15 -5502.92 -5581.45 -5565.96 -5490.97 -5472.66 -5555.54 -5760.11 -5815.55 -5701.73 -4630.28 -4128.99 -3788.05 -4091.95 -4133.41 -4169.35 -4199.04 -4214.58 -4232.24 -4258.04 -4274.52 -4290.47 -4307.73 -4318.70 -4313.73 -4305.97 -4303.21 -4298.48 -4296.67 -4298.14 -4298.95 -4300.01 -4302.38 -4302.44
-4668.47 -4668.41 -4669.96 -4673.83 -4677.55 -4679.88 -4681.25 -4683.88 -4687.46 -4688.47 -4689.61 -4691.07 -4693.38 -4692.61 -4692.70 -4690.75 -4688.65 -4682.30 -4677.03 -4684.21 -4672.68 -4669.26 -4653.77 -4663.86 -4652.50 -4669.48 -4666.63 -4659.21 -4676.63 -4721.02 -4735.73 -4773.57 -4271.62 -2828.60 -1396.06 -995.49 -721.08 -511.67 -391.56 -350.97 -317.14 -299.56 -273.71 -249.91 -223.03 -179.33 -115.11 -70.06 -48.29 -17.72 14.58 28.31 29.87 45.77 56.63 58.91 74.12 73.16 78.90 80.13 83.44 90.87 117.85 118.01 122.75 138.48 134.17 135.14 128.63 125.46 108.17 97.64 86.64 76.10 75.06 66.48 65.29 68.49 83.51 87.48 100.32 129.76 151.75 181.21 203.25 214.32 297.85 326.24 121.55 74.73 32.02 16.47 9.32 -21.14 -74.62 -141.18 -170.39 -238.63 -556.61 -1234.39 -3071.99 -3184.16 -3315.30 -3985.44 -4240.09 -4856.75 -5227.68 -5501.74 -5526.34 -5596.09 -5603.95 -5572.88 -5542.28 -5632.74 -5747.28 -5758.25 -5314.57 -4403.76 -3782.80 -3756.56 -4088.80 -4146.21 -4182.53 -4208.82 -4229.71 -4247.26 -4270.67 -4285.94 -4300.51 -4312.56 -4329.83 -4320.86 -4313.16 -4308.91 -4307.84 -4304.42 -4304.30 -4302.12 -4303.74 -4307.06 -4307.13
-4677.68 -4677.62 -4681.36 -4683.81 -4688.70 -4692.63 -4692.54 -4694.99 -4697.25 -4698.90 -4701.30 -4702.37 -4702.44 -4708.33 -4714.31 -4714.08 -4713.38 -4709.87 -4709.55 -4701.48 -4709.40 -4703.89 -4699.18 -4699.20 -4688.85 -4692.01 -4690.97 -4681.42 -4692.23 -4719.25 -4737.45 -4745.87 -4552.92 -4236.09 -2300.59 -1664.10 -1028.92 -786.20 -554.47 -379.74 -366.26 -323.83 -321.94 -306.97 -254.53 -226.00 -147.52 -105.43 -95.94 -43.50 -8.25 0.55 3.33 32.17 38.70 22.89 36.69 40.90 56.95 54.08 60.15 59.97 82.39 98.87 120.90 139.12 117.65 118.43 121.77 107.66 95.76 88.54 77.00 61.72 49.22 56.36 52.92 51.62 53.54 62.64 78.61 110.41 122.47 148.70 168.48 174.44 279.86 172.42 88.87 77.20 29.61 11.80 -14.58 -73.05 -193.90 -222.61 -264.54 -620.79 -1051.65 -1575.38 -3146.21 -4725.74 -4902.12 -5190.49 -5096.55 -5327.52 -5546.26 -5546.52 -5619.37 -5623.28 -5582.73 -5382.56 -5296.72 -5249.09 -5260.49 -5041.71 -5011.07 -4021.78 -3494.46 -3881.55 -4120.25 -4178.35 -4207.26 -4227.95 -4254.57 -4268.67 -4290.88 -4301.59 -4320.05 -4334.08 -4338.09 -4329.73 -4322.20 -4319.01 -4315.66 -4314.05 -4313.04 -4310.25 -4310.83 -4311.85 -4311.91
-4687.56 -4687.50 -4689.99 -4696.04 -4700.58 -4703.82 -4708.06 -4710.53 -4710.22 -4714.42 -4717.90 -4720.06 -4723.89 -4722.52 -4732.45 -4732.80 -4735.19 -4737.51 -4732.33 -4733.36 -4734.95 -4727.51 -4728.27 -4727.84 -4717.12 -4724.13 -4714.48 -4707.07 -4705.86 -4723.47 -4735.90 -4749.76 -4790.18 -4483.65 -3375.09 -2380.39 -1562.96 -981.50 -864.36 -733.95 -514.52 -385.61 -374.06 -336.06 -307.73 -245.27 -164.21 -169.51 -145.05 -108.32 -81.08 -79.21 -44.98 -20.11 -39.41 -29.76 -8.97 15.01 24.26 29.39 41.10 44.99 48.46 71.99 97.22 126.28 116.63 120.02 111.63 94.54 82.00 72.74 53.94 44.43 43.71 29.97 31.56 39.80 45.35 61.52 71.24 101.17 122.01 130.70 136.59 146.20 181.58 150.02 81.49 44.98 12.07 -0.17 -58.70 -126.33 -193.44 -286.88 -430.50 -1175.04 -2653.48 -4432.52 -4245.54 -5073.56 -5548.35 -5579.42 -5585.00 -5622.80 -5625.18 -5646.91 -5657.89 -4090.80 -4945.87 -4518.96 -4268.17 -3613.29 -3915.77 -4015.17 -3811.80 -3488.10 -3568.37 -3941.10 -4148.38 -4197.27 -4214.65 -4249.50 -4270.72 -4283.79 -4302.88 -4314.96 -4330.84 -4346.04 -4344.96 -4338.37 -4332.75 -4325.64 -4323.93 -4318.99 -4320.76 -4318.41 -4316.00 -4317.61 -4317.67
-4698.50 -4700.08 -4703.98 -4705.81 -4709.81 -4714.31 -4718.50 -4718.56 -4729.48 -4732.65 -4731.66 -4735.92 -4738.12 -4749.11 -4752.33 -4756.92 -4758.23 -4767.35 -4764.61 -4765.24 -4763.40 -4753.03 -4749.74 -4744.16 -4745.81 -4738.30 -4739.28 -4726.54 -4723.80 -4734.01 -4743.34 -4754.98 -4776.29 -4769.09 -4567.42 -3009.78 -2206.45 -1464.80 -1074.98 -923.09 -743.51 -418.46 -388.46 -372.40 -333.13 -260.13 -216.66 -217.06 -176.14 -169.63 -144.38 -175.65 -122.44 -92.15 -93.99 -86.12 -52.78 -13.97 -0.88 20.04 20.98 34.63 40.15 42.73 51.38 61.73 115.58 132.70 115.58 88.41 58.11 42.56 32.33 29.12 28.39 22.64 25.04 27.58 35.35 42.11 49.07 67.80 97.64 107.53 105.46 112.61 117.89 95.57 38.29 31.25 7.28 -68.69 -172.14 -252.27 -516.95 -834.25 -1731.72 -2512.39 -4293.45 -4540.98 -5288.98 -5430.85 -5559.48 -5621.16 -5536.16 -5453.22 -4621.46 -4323.97 -4402.30 -1774.02 -1633.89 -1424.48 -716.34 -1690.76 -2468.59 -3441.33 -3514.08 -3625.90 -3587.27 -4043.60 -4152.49 -4224.25 -4242.96 -4270.82 -4283.79 -4296.18 -4315.80 -4332.99 -4349.32 -4354.39 -4355.37 -4345.64 -4339.39 -4336.85 -4335.48 -4331.56 -4324.66 -4324.42 -4324.07 -4323.78 -4323.25
-4710.80 -4710.74 -4712.24 -4719.38 -4725.80 -4726.71 -4734.77 -4739.29 -4741.89 -4744.39 -4753.25 -4755.25 -4759.63 -4764.30 -4773.27 -4773.46 -4771.94 -4783.57 -4785.85 -4787.63 -4787.75 -4782.69 -4782.41 -4774.02 -4770.06 -4762.24 -4762.03 -4757.68 -4739.79 -4743.74 -4746.82 -4753.20 -4761.10 -4799.41 -4689.94 -3958.06 -3339.30 -1743.38 -1260.96 -1046.19 -926.51 -569.76 -422.15 -401.78 -368.54 -331.29 -293.36 -292.46 -269.98 -255.53 -241.36 -222.43 -199.92 -147.96 -145.21 -140.31 -115.83 -36.51 -28.02 -38.58 -17.52 4.24 17.31 26.43 21.03 31.11 98.10 121.13 95.89 70.95 36.76 33.17 24.99 14.58 7.22 10.36 14.76 12.64 18.39 23.62 34.64 42.11 66.47 67.48 81.21 77.25 58.13 43.13 30.48 16.17 -32.93 -126.17 -273.85 -310.55 -679.37 -1478.66 -3888.45 -4627.37 -4746.23 -4926.70 -5375.82 -5563.23 -5564.67 -5456.19 -5155.67 -4062.76 -2688.60 -1949.11 -438.44 -150.57 -209.75 -5.14 -162.07 -71.71 -1627.89 -2701.56 -3415.76 -3713.05 -3812.96 -3993.95 -4203.98 -4245.60 -4265.37 -4288.97 -4308.40 -4326.97 -4341.25 -4349.16 -4361.37 -4367.42 -4362.40 -4352.50 -4346.87 -4343.86 -4343.17 -4343.32 -4336.32 -4332.96 -4329.97 -4329.39 -4329.45
-4724.96 -4724.91 -4728.44 -4733.62 -4744.24 -4743.27 -4748.37 -4754.48 -4759.66 -4767.86 -4766.56 -4770.55 -4774.18 -4780.31 -4786.80 -4793.74 -4797.28 -4804.06 -4807.47 -4814.52 -4809.39 -4810.35 -4801.95 -4797.74 -4793.84 -4784.54 -4777.11 -4776.66 -4773.80 -4761.82 -4759.03 -4761.85 -4769.88 -4782.52 -4774.41 -4505.17 -3807.21 -2656.09 -1609.67 -1360.73 -1042.12 -777.09 -555.92 -427.33 -396.56 -364.65 -355.84 -338.76 -316.87 -304.24 -289.94 -266.91 -239.68 -179.51 -169.86 -168.06 -169.02 -157.49 -59.01 -54.51 -45.32 -9.70 -4.06 -2.49 6.10 9.90 44.17 50.63 57.60 53.29 19.21 15.53 5.93 2.29 0.35 0.96 4.47 4.90 -6.01 6.15 10.49 26.93 36.83 37.26 48.95 52.48 48.83 32.76 22.23 1.77 -49.21 -223.30 -318.52 -340.86 -831.61 -2742.72 -4330.96 -5029.74 -5222.17 -5415.76 -5456.04 -5363.16 -5140.16 -4147.08 -2800.78 -517.99 -92.71 -51.00 -18.25 1.12 5.35 6.49 -3.88 -83.55 -1099.88 -2846.74 -3383.48 -3727.02 -3909.26 -4127.62 -4210.06 -4267.35 -4286.78 -4307.19 -4328.96 -4346.34 -4359.48 -4371.50 -4373.19 -4372.72 -4372.53 -4365.88 -4362.21 -4357.16 -4354.28 -4351.81 -4345.67 -4341.73 -4337.44 -4335.48 -4335.54
-4741.58 -4741.53 -4743.82 -4753.00 -4753.48 -4766.08 -4764.74 -4775.36 -4774.37 -4782.08 -4785.88 -4791.48 -4799.12 -4805.03 -4809.37 -4813.95 -4824.86 -4831.78 -4833.16 -4841.80 -4834.91 -4832.76 -4827.22 -4819.11 -4815.14 -4812.07 -4807.30 -4790.21 -4788.51 -4782.83 -4780.16 -4778.77 -4779.05 -4781.59 -4779.66 -4735.02 -4050.95 -3276.89 -2084.75 -1374.79 -1189.98 -1067.71 -930.82 -531.21 -424.65 -405.03 -383.90 -391.98 -397.45 -362.43 -309.50 -298.15 -275.59 -220.63 -204.45 -199.01 -222.16 -218.75 -163.52 -179.83 -92.01 -47.11 -42.82 -22.88 -4.11 0.83 10.06 11.15 23.91 38.08 12.99 5.33 -8.48 -21.89 -22.45 -31.88 -29.24 -31.92 -37.52 -18.48 -14.08 1.76 17.74 16.09 21.79 30.70 32.88 20.56 14.90 -28.42 -93.38 -196.67 -318.61 -669.97 -1993.30 -2936.65 -4039.71 -4531.99 -4530.98 -3316.22 -3286.44 -3767.70 -2414.91 -1191.15 -693.12 -28.81 -15.08 -9.94 8.26 7.85 6.40 4.14 -101.28 -405.42 -1502.50 -2805.10 -3456.98 -3740.91 -3986.03 -4124.69 -4249.72 -4280.39 -4305.69 -4329.68 -4343.80 -4358.91 -4371.13 -4377.13 -4380.34 -4381.74 -4384.55 -4375.80 -4373.10 -4371.59 -4367.32 -4364.30 -4356.88 -4352.53 -4348.69 -4342.46 -4342.52
-4761.03 -4763.82 -4768.40 -4771.45 -4778.17 -4780.74 -4786.16 -4790.55 -4797.00 -4801.71 -4805.45 -4811.61 -4815.44 -4817.92 -4826.84 -4837.37 -4842.97 -4845.79 -4857.30 -4858.53 -4862.46 -4857.51 -4851.86 -4852.55 -4845.23 -4836.85 -4830.67 -4822.03 -4812.00 -4813.05 -4799.64 -4797.21 -4791.39 -4789.57 -4796.50 -4728.33 -4481.05 -3147.13 -2696.27 -1932.60 -1338.07 -1181.94 -954.74 -819.35 -572.52 -497.55 -428.77 -417.73 -426.15 -413.15 -394.91 -357.28 -364.47 -303.75 -278.68 -245.00 -278.18 -271.75 -244.34 -199.82 -153.66 -132.74 -89.90 -75.94 -65.09 -41.25 -12.78 -7.71 -4.15 14.13 -19.35 -22.76 -39.16 -37.82 -59.47 -63.88 -54.55 -48.30 -63.14 -43.80 -19.73 -17.54 -3.95 5.44 -3.06 0.66 16.51 -4.61 -36.85 -93.68 -161.61 -206.57 -412.94 -1310.70 -1928.60 -2704.28 -3298.51 -3160.94 -1837.74 -1061.22 -774.29 -670.72 -641.78 -430.10 44.94 31.62 18.27 1.48 3.45 6.23 -1.48 -7.41 -20.54 -899.39 -2201.29 -2960.31 -3505.20 -3900.29 -4147.12 -4211.00 -4271.55 -4300.90 -4326.61 -4345.62 -4360.47 -4369.94 -4383.34 -4390.62 -4392.01 -4392.04 -4395.25 -4393.58 -4389.22 -4384.55 -4378.14 -4375.63 -4368.82 -4357.79 -4353.87 -4349.54 -4349.60
-4783.45 -4783.40 -4798.18 -4794.64 -4808.07 -4806.76 -4816.04 -4816.74 -4822.26 -4825.22 -4835.25 -4841.35 -4845.51 -4851.66 -4855.90 -4857.47 -4869.25 -4872.04 -4878.09 -4878.41 -4880.55 -4882.98 -4877.91 -4872.61 -4859.24 -4856.01 -4850.90 -4849.79 -4842.39 -4832.51 -4833.42 -4828.10 -4824.24 -4808.57 -4807.88 -4727.54 -4606.61 -4077.20 -2879.09 -2244.28 -1690.89 -1346.22 -1198.78 -965.13 -913.29 -673.85 -740.32 -696.18 -524.51 -502.48 -446.24 -447.24 -403.98 -357.77 -344.60 -329.34 -320.61 -307.55 -277.18 -233.88 -224.48 -210.41 -180.85 -183.91 -165.24 -119.02 -60.86 -41.25 -39.15 -42.31 -41.30 -60.28 -56.09 -75.04 -90.14 -93.41 -83.53 -89.47 -95.25 -106.16 -108.73 -76.02 -70.73 -75.24 -58.27 -33.23 -23.96 -64.84 -102.73 -231.35 -323.08 -525.84 -713.71 -1963.29 -2357.91 -3039.79 -2809.44 -938.12 -430.11 -20.27 69.94 -32.60 83.56 85.87 81.29 64.27 35.04 10.27 -2.44 -3.15 -14.22 -21.54 -34.77 -1207.90 -2237.87 -3294.04 -3693.58 -4033.48 -4176.12 -4245.62 -4295.21 -4317.21 -4343.98 -4361.88 -4372.38 -4389.32 -4391.05 -4399.29 -4402.19 -4401.86 -4408.33 -4408.97 -4403.70 -4395.90 -4395.18 -4384.64 -4378.73 -4368.02 -4363.51 -4356.07 -4356.13
-4809.18 -4812.78 -4820.95 -4827.85 -4832.99 -4836.91 -4835.93 -4845.82 -4849.87 -4854.50 -4867.20 -4863.89 -4874.05 -4875.99 -4888.48 -4887.10 -4890.00 -4893.82 -4907.26 -4915.07 -4910.30 -4907.89 -4905.14 -4899.41 -4897.16 -4886.25 -4878.79 -4872.57 -4866.48 -4861.39 -4860.96 -4858.13 -4848.98 -4846.40 -4835.38 -4846.56 -4735.85 -4326.06 -4045.36 -3005.05 -2109.66 -1755.73 -1559.81 -1240.39 -903.63 -887.63 -881.34 -861.71 -866.69 -749.81 -680.02 -735.02 -500.79 -403.84 -405.92 -382.28 -392.09 -368.79 -346.90 -303.08 -270.30 -260.18 -255.94 -235.88 -236.44 -205.79 -154.86 -115.87 -128.19 -110.01 -102.22 -86.46 -101.15 -102.51 -115.92 -126.01 -140.00 -116.08 -124.80 -120.49 -135.97 -142.35 -144.19 -144.49 -97.68 -107.46 -100.49 -187.18 -203.02 -324.92 -417.23 -559.52 -997.48 -1458.80 -1719.70 -1980.28 -1709.86 -244.93 40.30 23.63 73.94 116.60 131.26 130.24 92.66 75.93 40.38 12.17 -17.71 -24.93 -58.60 -67.55 -1197.61 -2129.04 -2808.14 -3308.92 -3797.10 -4059.17 -4204.58 -4280.04 -4298.54 -4325.78 -4351.33 -4366.54 -4383.94 -4394.89 -4399.14 -4406.21 -4417.08 -4423.20 -4424.44 -4421.87 -4417.92 -4411.64 -4406.42 -4400.33 -4393.40 -4380.29 -4371.34 -4361.45 -4361.51
-4838.28 -4842.40 -4847.32 -4855.69 -4860.73 -4871.43 -4877.42 -4882.34 -4887.57 -4891.42 -4891.48 -4898.72 -4896.21 -4906.77 -4904.54 -4915.28 -4922.39 -4930.07 -4930.50 -4933.13 -4933.09 -4937.21 -4931.50 -4923.52 -4925.43 -4923.65 -4908.66 -4909.15 -4891.06 -4888.85 -4889.28 -4885.37 -4886.65 -4880.33 -4889.40 -4865.97 -4836.98 -4565.02 -4322.15 -3954.58 -3195.30 -3077.02 -2401.52 -1976.61 -1741.07 -1071.90 -1060.18 -967.41 -1026.51 -1045.25 -1140.17 -992.40 -672.79 -701.25 -559.08 -458.48 -562.40 -435.05 -410.49 -371.47 -359.39 -334.73 -323.85 -280.57 -260.40 -259.06 -223.13 -199.12 -202.82 -182.34 -163.48 -166.16 -152.18 -151.52 -162.87 -153.66 -172.81 -155.06 -144.29 -155.23 -193.82 -202.55 -185.31 -178.22 -184.81 -171.48 -184.93 -185.89 -223.78 -297.78 -438.80 -456.40 -550.88 -924.94 -1096.62 -945.70 -502.00 46.47 94.54 112.45 182.27 214.61 193.14 148.19 101.25 67.48 23.35 -0.22 -77.15 -77.98 -363.27 -783.23 -1752.71 -2470.06 -2877.21 -3317.39 -3635.37 -4016.79 -4162.09 -4256.20 -4309.84 -4342.45 -4354.50 -4380.24 -4393.09 -4405.65 -4413.83 -4425.59 -4432.38 -4433.89 -4442.63 -4438.13 -4435.29 -4428.05 -4416.82 -4409.40 -4400.67 -4383.78 -4378.35 -4364.88 -4364.94
-4870.70 -4870.66 -4883.60 -4880.05 -4885.32 -4889.76 -4908.12 -4915.16 -4925.10 -4925.60 -4928.35 -4933.67 -4949.45 -4944.12 -4959.44 -4954.63 -4954.81 -4956.04 -4970.50 -4966.29 -4970.86 -4968.04 -4968.85 -4965.41 -4952.66 -4951.62 -4944.13 -4941.25 -4928.10 -4931.69 -4916.63 -4923.54 -4908.01 -4909.94 -4902.74 -4901.01 -4896.64 -4871.79 -4733.56 -4583.91 -4528.89 -3810.23 -3598.15 -3317.44 -2427.24 -1789.44 -1357.76 -1158.01 -1107.49 -1165.20 -1191.86 -1211.65 -1078.97 -989.38 -874.51 -652.16 -918.16 -643.94 -678.06 -502.07 -438.06 -376.85 -349.65 -330.13 -314.61 -300.11 -275.68 -260.23 -239.06 -209.73 -206.68 -205.12 -212.14 -200.17 -211.52 -193.63 -204.46 -203.62 -200.96 -204.86 -213.40 -216.69 -208.09 -190.73 -192.41 -188.89 -186.36 -189.11 -223.91 -268.49 -359.35 -359.32 -437.16 -320.44 -422.81 -90.10 4.53 146.31 255.37 311.75 362.49 291.12 196.75 124.46 88.64 59.06 24.30 -130.60 -205.11 -591.59 -1244.40 -1767.65 -2162.22 -2545.85 -2917.36 -3347.54 -3708.35 -3965.33 -4183.35 -4261.72 -4324.54 -4357.84 -4376.00 -4386.43 -4401.81 -4425.27 -4431.76 -4439.19 -4443.17 -4454.99 -4454.68 -4450.66 -4447.62 -4441.30 -4430.39 -4415.63 -4407.18 -4387.92 -4383.62 -4365.33 -4365.40
-4906.14 -4906.11 -4910.66 -4917.65 -4931.38 -4942.79 -4945.91 -4953.97 -4947.06 -4953.62 -4966.90 -4977.50 -4966.15 -4970.11 -4986.50 -4987.57 -4989.91 -4998.45 -4997.16 -5007.23 -5012.61 -5012.81 -5005.97 -4993.55 -4999.93 -4979.87 -4981.49 -4973.84 -4968.40 -4962.13 -4958.06 -4951.57 -4953.94 -4948.81 -4945.00 -4933.33 -4927.37 -4917.68 -4881.46 -4830.30 -4689.09 -4568.86 -4452.32 -4050.49 -3458.79 -2503.39 -1754.94 -1583.45 -1426.01 -1311.34 -1239.74 -1168.80 -1133.88 -1094.82 -1106.50 -1009.92 -1100.70 -963.20 -910.78 -739.60 -479.59 -435.71 -390.47 -367.95 -330.65 -312.93 -290.98 -276.73 -266.94 -245.75 -241.85 -235.54 -231.81 -232.12 -235.95 -246.12 -235.18 -234.15 -232.78 -224.69 -230.59 -220.72 -204.46 -182.55 -189.50 -162.68 -163.93 -159.38 -191.12 -214.69 -280.51 -280.21 -311.40 -194.03 -92.35 3.92 81.20 318.22 342.91 416.45 435.43 222.32 164.61 119.66 82.18 42.62 -2.21 -85.46 -418.26 -976.39 -1437.66 -1696.53 -2115.92 -2537.56 -2893.05 -3383.10 -3791.50 -3977.62 -4176.02 -4262.34 -4320.26 -4362.01 -4383.28 -4397.13 -4419.73 -4436.84 -4449.12 -4458.14 -4465.26 -4467.31 -4469.99 -4462.35 -4458.17 -4452.18 -4433.85 -4423.73 -4407.89 -4393.75 -4379.24 -4364.52 -4361.79
-4944.08 -4944.05 -4962.40 -4980.29 -4979.20 -4976.33 -4992.60 -4997.23 -4992.96 -5001.94 -5003.96 -5007.64 -5018.45 -5034.16 -5039.56 -5037.33 -5045.50 -5041.92 -5048.15 -5040.17 -5041.02 -5042.69 -5038.67 -5035.89 -5026.90 -5021.22 -5032.91 -5034.92 -5019.37 -5012.60 -5008.50 -5006.06 -4994.56 -4993.49 -4984.47 -4963.10 -4961.66 -4963.35 -4953.23 -4897.59 -4833.06 -4796.04 -4741.70 -4609.94 -4573.59 -3521.11 -2941.62 -2314.41 -1915.57 -1575.74 -1344.19 -1209.47 -1259.01 -1088.77 -1085.83 -1159.34 -1129.63 -1145.30 -1024.98 -795.84 -579.62 -459.99 -419.05 -382.83 -341.62 -308.67 -291.36 -274.81 -263.24 -260.93 -254.78 -257.53 -251.22 -252.57 -251.52 -248.91 -243.88 -240.24 -236.32 -233.83 -227.83 -209.99 -182.60 -150.75 -145.29 -136.43 -105.10 -119.83 -118.13 -112.56 -122.25 -103.34 -75.17 -74.84 -19.09 86.16 192.99 385.89 475.83 387.67 245.44 131.95 116.18 67.50 35.98 22.96 -14.22 -356.84 -791.05 -1376.86 -1569.11 -1799.78 -2281.77 -2760.54 -3206.47 -3617.53 -3846.80 -4055.81 -4151.62 -4272.70 -4330.80 -4360.79 -4388.93 -4415.67 -4431.29 -4446.93 -4467.37 -4472.07 -4478.78 -4481.62 -4482.65 -4475.36 -4462.75 -4455.92 -4440.18 -4425.23 -4403.84 -4392.12 -4376.62 -4353.05 -4353.12
